1.094945037803427973e-01,9.566852922448182417e-02,7.958279041141270993e-02,6.192292697890491859e-02,4.263298616049421980e-02,2.241835050690368578e-02,1.415063254533306149e-03,-1.978545576218505506e-02,-4.089572984944247341e-02,-6.151068718945178204e-02,-8.117105300456649297e-02,-9.954055010612364307e-02,-1.161962146667210594e-01,-1.309592140245683933e-01,-1.433742707280494799e-01,-1.533631749009783662e-01,-1.605581295007381115e-01,-1.649104643304056816e-01,-1.663706264794434508e-01,-1.647706976334549767e-01,-1.602386878572295004e-01,-1.528827557258672643e-01,-1.425479675744063535e-01,-1.298140432704297520e-01,-1.145798208101271587e-01,-9.706459953996990353e-02,-7.819471522606045999e-02,-5.718770801534633907e-02,-3.536680912821821982e-02,-1.282728144612528022e-02,1.060242242404353837e-02,3.350517158988551569e-02,5.652343198991385820e-02,7.884381120068534310e-02,9.990647838450758544e-02,1.198770059631059509e-01,1.381638556259635331e-01,1.545635675937456210e-01,1.687908852945689542e-01,1.810253016633148748e-01,1.905845561739458738e-01,1.975855328275472889e-01,2.024406020048948596e-01,2.043217644204643191e-01,2.037940543583381114e-01,2.011078417923471140e-01,1.957194123214895665e-01,1.882342519374055612e-01,1.789950561037535193e-01,1.676527096334396172e-01,1.546951149909160939e-01,1.405395221273254003e-01,1.254001739925496850e-01,1.090774638448427092e-01,9.208762637902713488e-02,7.491065220022341542e-02,5.774290079618657479e-02,4.027383305706645072e-02,2.313664696319346278e-02,6.706537747022693098e-03,-9.419670985861964760e-03,-2.485233395957163471e-02,-3.918300560739814559e-02,-5.241210362251814969e-02,-6.472175118275146077e-02,-7.594195041948996472e-02,-8.592050231074202515e-02,-9.450975171047767964e-02,-1.019636930261976077e-01,-1.082831935165408377e-01,-1.134584420812684846e-01,-1.173379572583638092e-01,-1.199098946755573075e-01,-1.211853616533243444e-01,-1.211853616533243166e-01,-1.199098946755572104e-01,-1.173379572583638786e-01,-1.134584420812684569e-01,-1.082831935165408099e-01,-1.019636930261977187e-01,-9.450975171047767964e-02,-8.592050231074190025e-02,-7.594195041948989533e-02,-6.472175118275118322e-02,-5.241210362251794153e-02,-3.918300560739797211e-02,-2.485233395957125307e-02,-9.419670985861694143e-03,6.706537747022978460e-03,2.313664696319396932e-02,4.027383305706679767e-02,5.774290079618660948e-02,7.491065220022360971e-02,9.208762637902730142e-02,1.090774638448430700e-01,1.254001739925504344e-01,1.405395221273255946e-01,1.546951149909166212e-01,1.676527096334399503e-01,1.789950561037540189e-01,1.882342519374059497e-01,1.957194123214897052e-01,2.011078417923472528e-01,2.037940543583383612e-01,2.043217644204643191e-01,2.024406020048949151e-01,1.975855328275475109e-01,1.905845561739459293e-01,1.810253016633145418e-01,1.687908852945690097e-01,1.545635675937453435e-01,1.381638556259636441e-01,1.198770059631056178e-01,9.990647838450765483e-02,7.884381120068516269e-02,5.652343198991353901e-02,3.350517158988534222e-02
1.141708974777228686e-01,1.012868065040746501e-01,8.609149001097295140e-02,6.907804529810968042e-02,5.052598827879206667e-02,3.075009842847685818e-02,1.019988438288771393e-02,-1.087421025774712620e-02,-3.197488364306487474e-02,-5.268191602086811504e-02,-7.266303828992629055e-02,-9.151322568545557090e-02,-1.088487571521577352e-01,-1.244748201529949916e-01,-1.378288690501715263e-01,-1.489372855041441457e-01,-1.574025668418860269e-01,-1.630994285335888860e-01,-1.660307714440457383e-01,-1.659776630106856998e-01,-1.629806408274576679e-01,-1.571440715575151692e-01,-1.484660391480396580e-01,-1.370648352216625732e-01,-1.235395819745291890e-01,-1.073374470793207885e-01,-8.942459717983770873e-02,-6.994765901146923759e-02,-4.875159972940311393e-02,-2.710618108497267476e-02,-4.375389988373359212e-03,1.857165725289976893e-02,4.116429647148395210e-02,6.366036891969868716e-02,8.518234496416102197e-02,1.056664014454463257e-01,1.247557102020445396e-01,1.423629166904418764e-01,1.579005605564824943e-01,1.713144952669082566e-01,1.829177307668861663e-01,1.917708294148229853e-01,1.983057685604523168e-01,2.027682711523071668e-01,2.043567156106475546e-01,2.037530499464709488e-01,2.011023716107391002e-01,1.959741156287636843e-01,1.888675099371839861e-01,1.801480525834979196e-01,1.696375858047046992e-01,1.575899125010759849e-01,1.443650846782772723e-01,1.304259224295496178e-01,1.155036440684213822e-01,9.986422938950043071e-02,8.411114834972933940e-02,6.841665879604649780e-02,5.253457373831708910e-02,3.702235367746132405e-02,2.213592984438111574e-02,7.904192220858387991e-03,-5.908312749437314056e-03,-1.883616591706594595e-02,-3.061582885056752384e-02,-4.144884259732647264e-02,-5.130305110742228170e-02,-5.999399943496015047e-02,-6.743215816596623280e-02,-7.356893440759580682e-02,-7.843001841149542519e-02,-8.209040984708690369e-02,-8.457599026271847564e-02,-8.585293988417998234e-02,-8.585293988418003786e-02,-8.457599026271844789e-02,-8.209040984708697308e-02,-7.843001841149548070e-02,-7.356893440759579295e-02,-6.743215816596609402e-02,-5.999399943496013660e-02,-5.130305110742217761e-02,-4.144884259732647264e-02,-3.061582885056743364e-02,-1.883616591706578289e-02,-5.908312749436862160e-03,7.904192220858646464e-03,2.213592984438153555e-02,3.702235367746175426e-02,5.253457373831721400e-02,6.841665879604658107e-02,8.411114834972954757e-02,9.986422938950068051e-02,1.155036440684216875e-01,1.304259224295496455e-01,1.443650846782780217e-01,1.575899125010759294e-01,1.696375858047050877e-01,1.801480525834979196e-01,1.888675099371842359e-01,1.959741156287639063e-01,2.011023716107390724e-01,2.037530499464713374e-01,2.043567156106479155e-01,2.027682711523072223e-01,1.983057685604524834e-01,1.917708294148232628e-01,1.829177307668864993e-01,1.713144952669082566e-01,1.579005605564825498e-01,1.423629166904416543e-01,1.247557102020446090e-01,1.056664014454461037e-01,8.518234496416109136e-02,6.366036891969857614e-02,4.116429647148364679e-02,1.857165725289967526e-02
1.187015714328293892e-01,1.066443810602501902e-01,9.248159997631154317e-02,7.623751600600953138e-02,5.846241213016716703e-02,3.923806165404626622e-02,1.903727800867138428e-02,-1.677927682267417323e-03,-2.270108105205069504e-02,-4.345346852353806216e-02,-6.365487358651944483e-02,-8.302939113930088433e-02,-1.008753004302957168e-01,-1.172969634613040962e-01,-1.316046804783551905e-01,-1.437172217157854925e-01,-1.535302221889469632e-01,-1.605225738434814808e-01,-1.649185088477692629e-01,-1.663614000746385657e-01,-1.649336332555787210e-01,-1.606535334073326549e-01,-1.537327063780164760e-01,-1.438967826341627232e-01,-1.316693316060442709e-01,-1.172281637755427236e-01,-1.004502599088080983e-01,-8.231944227275668491e-02,-6.228371435725728322e-02,-4.116522054693183552e-02,-1.947825604437261604e-02,3.081465421617607826e-03,2.547043244181184871e-02,4.777115146553920916e-02,6.957514701099437593e-02,9.055611937464339012e-02,1.103043143691696121e-01,1.285757863276458246e-01,1.455613179642278876e-01,1.602990056726892876e-01,1.731085359932346135e-01,1.841751489600942926e-01,1.924521842767014934e-01,1.986764834712975714e-01,2.028470484201556623e-01,2.043824113995249825e-01,2.038377233156866142e-01,2.013528337653175959e-01,1.966373350453315128e-01,1.901145535831389455e-01,1.820047823522921715e-01,1.724931598531731225e-01,1.614504186708195232e-01,1.493898415327507279e-01,1.365419786779142608e-01,1.231380387487185923e-01,1.090392407955229209e-01,9.474479713746868093e-02,8.066560540947058378e-02,6.645135398633611468e-02,5.245785287161776334e-02,3.907154816253900764e-02,2.642039905244843168e-02,1.441628698391702462e-02,3.207258219484265989e-03,-7.076103284280483956e-03,-1.622572669464268993e-02,-2.442334080193559950e-02,-3.161647889573625941e-02,-3.776509295172272157e-02,-4.268248446023468340e-02,-4.635555339173418748e-02,-4.876584872715893082e-02,-4.997885101011076414e-02,-4.997885101011075720e-02,-4.876584872715895164e-02,-4.635555339173420830e-02,-4.268248446023460013e-02,-3.776509295172275626e-02,-3.161647889573625941e-02,-2.442334080193559256e-02,-1.622572669464257544e-02,-7.076103284280554212e-03,3.207258219484429053e-03,1.441628698391717554e-02,2.642039905244866760e-02,3.907154816253930601e-02,5.245785287161810334e-02,6.645135398633632284e-02,8.066560540947070868e-02,9.474479713746861154e-02,1.090392407955232124e-01,1.231380387487187311e-01,1.365419786779146216e-01,1.493898415327508944e-01,1.614504186708199951e-01,1.724931598531734278e-01,1.820047823522924768e-01,1.901145535831391120e-01,1.966373350453317070e-01,2.013528337653176792e-01,2.038377233156863366e-01,2.043824113995248992e-01,2.028470484201555513e-01,1.986764834712973493e-01,1.924521842767016877e-01,1.841751489600942371e-01,1.731085359932345302e-01,1.602990056726892876e-01,1.455613179642279431e-01,1.285757863276460466e-01,1.103043143691695149e-01,9.055611937464316807e-02,6.957514701099450083e-02,4.777115146553914671e-02,2.547043244181153993e-02,3.081465421617382312e-03
1.229144374607181039e-01,1.118671856836095796e-01,9.871668043827740158e-02,8.338090730295805164e-02,6.625244585180185830e-02,4.778489759474267851e-02,2.804450508903412811e-02,7.709677290596609993e-03,-1.306154707038829216e-02,-3.395310268052702252e-02,-5.419546091476731831e-02,-7.396438387644579948e-02,-9.236324953548971650e-02,-1.093511767696694892e-01,-1.247453233546725188e-01,-1.377785399762940510e-01,-1.488300157822956826e-01,-1.571441911606634156e-01,-1.628597609016634029e-01,-1.659128583243767441e-01,-1.661093266823499282e-01,-1.634700993510590505e-01,-1.580417726288613212e-01,-1.500064519224607318e-01,-1.392902268761402329e-01,-1.264834436027866549e-01,-1.111889445070840393e-01,-9.407658372197123808e-02,-7.556258781208079200e-02,-5.533639683370233930e-02,-3.445528878039064852e-02,-1.274035956356261469e-02,9.401599788970428986e-03,3.147955680273080425e-02,5.326549273111329946e-02,7.436171539477295922e-02,9.483392149751447564e-02,1.138163593770107063e-01,1.314421104654733552e-01,1.478523300218435310e-01,1.618702076083118890e-01,1.741892679957912082e-01,1.847325336824171271e-01,1.926805600474193192e-01,1.987104042924673908e-01,2.027064366379766058e-01,2.043535630243827617e-01,2.040237678074064698e-01,2.018329424443686126e-01,1.976964959737663452e-01,1.918897126433989631e-01,1.845518011719379792e-01,1.760536038029196226e-01,1.661741766937325782e-01,1.552963504083773039e-01,1.437842154542890438e-01,1.318190762438560815e-01,1.192242671599483411e-01,1.065045489278732826e-01,9.393172441401111128e-02,8.162690401816902197e-02,6.936890397021476529e-02,5.754112452744603035e-02,4.645773327230032224e-02,3.603461397020406298e-02,2.633350229087822597e-02,1.754351483811539270e-02,9.740529770759481787e-03,3.045387626035527331e-03,-2.530503467514705687e-03,-7.052444346229750326e-03,-1.055361048876783843e-02,-1.294337176949374515e-02,-1.413037536483077034e-02,-1.413037536483066278e-02,-1.294337176949379199e-02,-1.055361048876783843e-02,-7.052444346229704356e-03,-2.530503467514863981e-03,3.045387626035597154e-03,9.740529770759547706e-03,1.754351483811539963e-02,2.633350229087822944e-02,3.603461397020425033e-02,4.645773327230058591e-02,5.754112452744614137e-02,6.936890397021482080e-02,8.162690401816911911e-02,9.393172441401155537e-02,1.065045489278736296e-01,1.192242671599488962e-01,1.318190762438563313e-01,1.437842154542892381e-01,1.552963504083773871e-01,1.661741766937330778e-01,1.760536038029199279e-01,1.845518011719378404e-01,1.918897126433988798e-01,1.976964959737663730e-01,2.018329424443685849e-01,2.040237678074067196e-01,2.043535630243831780e-01,2.027064366379770499e-01,1.987104042924675573e-01,1.926805600474192914e-01,1.847325336824170994e-01,1.741892679957910417e-01,1.618702076083119168e-01,1.478523300218437808e-01,1.314421104654734385e-01,1.138163593770104703e-01,9.483392149751454503e-02,7.436171539477279269e-02,5.326549273111342436e-02,3.147955680273056139e-02,9.401599788969960611e-03,-1.274035956356286102e-02
1.267975445544839708e-01,1.169073745148061366e-01,1.046301049250413090e-01,9.035451416232044564e-02,7.401315651356402125e-02,5.629941018499799721e-02,3.724331064746707470e-02,1.716085921863623465e-02,-3.191159562581209318e-03,-2.404450133263339937e-02,-4.439873812978589740e-02,-6.424790745026051630e-02,-8.336421658537479518e-02,-1.008170166657855055e-01,-1.170973918879040510e-01,-1.311516622909696672e-01,-1.431407053581108813e-01,-1.529465813423472043e-01,-1.599954918423999450e-01,-1.645876142779007512e-01,-1.663099083279568069e-01,-1.653237988710222206e-01,-1.616150737499014722e-01,-1.553186952986040370e-01,-1.462437703074714046e-01,-1.348221548489835775e-01,-1.213445644108075427e-01,-1.055324371923426346e-01,-8.830465632962304634e-02,-6.944562103418450150e-02,-4.931701476914539944e-02,-2.847030915355443226e-02,-6.977924575059356836e-03,1.465996774613601526e-02,3.642609017391986587e-02,5.759502654891961865e-02,7.810667995920081430e-02,9.805990729616699542e-02,1.162855752096966372e-01,1.333852091283052321e-01,1.491620714172378903e-01,1.626489598033212247e-01,1.745745603895467735e-01,1.846737998404609227e-01,1.924762890117780179e-01,1.984237864940571472e-01,2.023607756928970380e-01,2.042008650142669857e-01,2.042812618253537493e-01,2.024843704786832288e-01,1.990707035438234740e-01,1.940102676603906451e-01,1.876654091415109471e-01,1.800939817678580690e-01,1.715345667904888682e-01,1.619854335113088128e-01,1.517714970861081814e-01,1.413383473839391891e-01,1.303898414850930831e-01,1.191947442239930932e-01,1.080980403938365392e-01,9.733611797538645194e-02,8.692311285467825555e-02,7.691821191477289654e-02,6.744143077221528837e-02,5.874744732220141263e-02,5.074129290533575115e-02,4.351281831585532972e-02,3.712941901682612067e-02,3.175966187721253331e-02,2.742689136749478299e-02,2.423508590754760994e-02,2.210931465782022334e-02,2.106552353765559632e-02,2.106552353765575245e-02,2.210931465782031355e-02,2.423508590754762035e-02,2.742689136749480727e-02,3.175966187721261658e-02,3.712941901682622475e-02,4.351281831585526033e-02,5.074129290533586911e-02,5.874744732220135018e-02,6.744143077221542715e-02,7.691821191477331288e-02,8.692311285467867188e-02,9.733611797538679888e-02,1.080980403938367335e-01,1.191947442239933569e-01,1.303898414850932497e-01,1.413383473839393278e-01,1.517714970861084034e-01,1.619854335113092014e-01,1.715345667904891458e-01,1.800939817678581245e-01,1.876654091415110859e-01,1.940102676603907839e-01,1.990707035438238071e-01,2.024843704786825627e-01,2.042812618253535828e-01,2.042008650142672632e-01,2.023607756928970658e-01,1.984237864940571749e-01,1.924762890117778791e-01,1.846737998404609504e-01,1.745745603895467735e-01,1.626489598033208916e-01,1.491620714172378348e-01,1.333852091283049823e-01,1.162855752096965956e-01,9.805990729616670398e-02,7.810667995920073103e-02,5.759502654891932721e-02,3.642609017391980342e-02,1.465996774613581403e-02,-6.977924575059800058e-03,-2.847030915355458491e-02
1.302266125067425839e-01,1.215770014370472774e-01,1.103237401594775596e-01,9.708420998255305745e-02,8.177342764977760248e-02,6.467086522180151564e-02,4.643553717830779110e-02,2.680717211402756234e-02,6.777833012839546735e-03,-1.367361954534466670e-02,-3.430966853319518395e-02,-5.413587316940311062e-02,-7.370286401214416749e-02,-9.178497824711270847e-02,-1.085317185176767618e-01,-1.238039880555797251e-01,-1.367139038292490005e-01,-1.477968453175435293e-01,-1.562473623387542754e-01,-1.621785452967811347e-01,-1.656459747080105960e-01,-1.663165512921931100e-01,-1.642319981804061524e-01,-1.595336152537112917e-01,-1.523615129161360049e-01,-1.425174857226064740e-01,-1.306421082286716162e-01,-1.165438193524968025e-01,-1.005058383455865872e-01,-8.302405003288437779e-02,-6.407009823397771808e-02,-4.417851663698350168e-02,-2.339050794017804788e-02,-2.280039148545698075e-03,1.891909590419721399e-02,4.030789820974925441e-02,6.080576039241521874e-02,8.083057228580714515e-02,1.001562520683674518e-01,1.177752563649014372e-01,1.343537167402336363e-01,1.495287065477943766e-01,1.626707840548554107e-01,1.742783769146692419e-01,1.840416179251732620e-01,1.917812331717138330e-01,1.977678707139199354e-01,2.017823924566875260e-01,2.039072199169971733e-01,2.044696894820650368e-01,2.032571252186673449e-01,2.006155758962323843e-01,1.964052778243920994e-01,1.910068660502767524e-01,1.845965042580540449e-01,1.773237041731577091e-01,1.690877122116130615e-01,1.602857884997274385e-01,1.511951659433451722e-01,1.420123704816932397e-01,1.325222574330663372e-01,1.230141937132576274e-01,1.138049707676691835e-01,1.049145779785059518e-01,9.643203759618537707e-02,8.854000262345487759e-02,8.128981287231901165e-02,7.486336938917619033e-02,6.930457122906957812e-02,6.454695476499262841e-02,6.059394802899574495e-02,5.754692203571280806e-02,5.551809686060747706e-02,5.449114123652738784e-02,5.449114123652735314e-02,5.551809686060768523e-02,5.754692203571292602e-02,6.059394802899581434e-02,6.454695476499255902e-02,6.930457122906977241e-02,7.486336938917630135e-02,8.128981287231891451e-02,8.854000262345503025e-02,9.643203759618576565e-02,1.049145779785062155e-01,1.138049707676696415e-01,1.230141937132581964e-01,1.325222574330664760e-01,1.420123704816932675e-01,1.511951659433453110e-01,1.602857884997279381e-01,1.690877122116134224e-01,1.773237041731575425e-01,1.845965042580541837e-01,1.910068660502767801e-01,1.964052778243924324e-01,2.006155758962323288e-01,2.032571252186674282e-01,2.044696894820649258e-01,2.039072199169973676e-01,2.017823924566874982e-01,1.977678707139199354e-01,1.917812331717138608e-01,1.840416179251735951e-01,1.742783769146691586e-01,1.626707840548552719e-01,1.495287065477944599e-01,1.343537167402336918e-01,1.177752563649014372e-01,1.001562520683674934e-01,8.083057228580686759e-02,6.080576039241515629e-02,4.030789820974887278e-02,1.891909590419713419e-02,-2.280039148545871548e-03,-2.339050794017853013e-02,-4.417851663698379311e-02
1.332737457159660632e-01,1.258267056349616220e-01,1.158259680057714541e-01,1.034877117982040823e-01,8.930143659904921094e-02,7.300554581682466848e-02,5.547907895299664105e-02,3.667955173484778453e-02,1.682425973931245614e-02,-3.136890949789777894e-03,-2.375490717709851513e-02,-4.377097498894042676e-02,-6.329530292838145278e-02,-8.219956867507970111e-02,-9.937923668701140190e-02,-1.155402324712849066e-01,-1.295894663149973480e-01,-1.415683450411985289e-01,-1.516077373893483515e-01,-1.589450983753262214e-01,-1.638524864074085430e-01,-1.661649573489133447e-01,-1.658581837615606125e-01,-1.628599561228401549e-01,-1.574223517320552101e-01,-1.494349326730998739e-01,-1.390759682138905662e-01,-1.266837582819839436e-01,-1.121951246512749162e-01,-9.609295991572835982e-02,-7.840997720724404707e-02,-5.954498748433705718e-02,-3.988517524206069975e-02,-1.926217078340468347e-02,1.354075186833368595e-03,2.218253803276518110e-02,4.304579841357855652e-02,6.295169301705350051e-02,8.246914435987305614e-02,1.011747180999507945e-01,1.183012870535513072e-01,1.343775468430768727e-01,1.490325191746682820e-01,1.619085713458818243e-01,1.732920967805662849e-01,1.827863719188753677e-01,1.904915786064539374e-01,1.966833226545056656e-01,2.008906587954987222e-01,2.034281756730148827e-01,2.044315442142648209e-01,2.039926805155326817e-01,2.020660520110069691e-01,1.988860147181945315e-01,1.945378412239639476e-01,1.891636970783399097e-01,1.832261931106010933e-01,1.764846874196497328e-01,1.691002363714647072e-01,1.613428655772307929e-01,1.535330602849163117e-01,1.457586831089923984e-01,1.380148291216559686e-01,1.303855688169986426e-01,1.231402444636034987e-01,1.162732596476641483e-01,1.098956323738523866e-01,1.040945913716253002e-01,9.900497482136415284e-02,9.470577706908527016e-02,9.126783054406199802e-02,8.865885625395515668e-02,8.697700409056899340e-02,8.613608040482932660e-02,8.613608040482945150e-02,8.697700409056881299e-02,8.865885625395518443e-02,9.126783054406181761e-02,9.470577706908561710e-02,9.900497482136411120e-02,1.040945913716255083e-01,1.098956323738523588e-01,1.162732596476644537e-01,1.231402444636035681e-01,1.303855688169986426e-01,1.380148291216561351e-01,1.457586831089922319e-01,1.535330602849165060e-01,1.613428655772309317e-01,1.691002363714648182e-01,1.764846874196501492e-01,1.832261931106009545e-01,1.891636970783398264e-01,1.945378412239638921e-01,1.988860147181950866e-01,2.020660520110072189e-01,2.039926805155331813e-01,2.044315442142645711e-01,2.034281756730149382e-01,2.008906587954989997e-01,1.966833226545054714e-01,1.904915786064538541e-01,1.827863719188756175e-01,1.732920967805662849e-01,1.619085713458816578e-01,1.490325191746683375e-01,1.343775468430767062e-01,1.183012870535512656e-01,1.011747180999506418e-01,8.246914435987302838e-02,6.295169301705318132e-02,4.304579841357847325e-02,2.218253803276505967e-02,1.354075186833395266e-03,-1.926217078340494021e-02,-3.988517524206092180e-02,-5.954498748433709188e-02
1.359652983757343170e-01,1.296095431807051945e-01,1.209103067911237311e-01,1.096322924071641003e-01,9.645399826112187325e-02,8.131408406045037562e-02,6.438687235691517574e-02,4.647921601750162890e-02,2.709132667925557431e-02,7.385008435683377594e-03,-1.270109461864393774e-02,-3.306676146692227175e-02,-5.251249396119768431e-02,-7.183712884753316874e-02,-8.978817761794441465e-02,-1.063214161265322172e-01,-1.216384548509416713e-01,-1.346428012483782133e-01,-1.457957537592576569e-01,-1.546507964578520689e-01,-1.610188322003663908e-01,-1.649877036185389834e-01,-1.663680629644897491e-01,-1.651478536043433087e-01,-1.614140720710402765e-01,-1.552769958250448668e-01,-1.466396932246069040e-01,-1.359283678667358441e-01,-1.231153404015385283e-01,-1.084004584590178011e-01,-9.229094883529669058e-02,-7.454465656856368305e-02,-5.591736540687187312e-02,-3.645380971903861012e-02,-1.616832634834977286e-02,3.964034535867601988e-03,2.436749266129937391e-02,4.467783033155543065e-02,6.406414493644900510e-02,8.302174708701896833e-02,1.011049887617275211e-01,1.178320985655026687e-01,1.334756677104039502e-01,1.476571910105053675e-01,1.603060679663996235e-01,1.715387957722808998e-01,1.809260342634308460e-01,1.886285599045926242e-01,1.950362498391296495e-01,1.996206435317166572e-01,2.026478135670544689e-01,2.041527503056223547e-01,2.043705547398516620e-01,2.033622080676931176e-01,2.012195800155792968e-01,1.979133682751694490e-01,1.936979860149850574e-01,1.888423513421992050e-01,1.835989005832105170e-01,1.777510671601692238e-01,1.714977565759510103e-01,1.651121595640667739e-01,1.586788639731023243e-01,1.523456932040769818e-01,1.462885180331918722e-01,1.404885495940697560e-01,1.351793963356240635e-01,1.304182914393932635e-01,1.261193051278826915e-01,1.223679407138392877e-01,1.192747124456841196e-01,1.169068053214328828e-01,1.153134979601586063e-01,1.144774663496038875e-01,1.144774663496034434e-01,1.153134979601587035e-01,1.169068053214327163e-01,1.192747124456843416e-01,1.223679407138393987e-01,1.261193051278830246e-01,1.304182914393932913e-01,1.351793963356242023e-01,1.404885495940702278e-01,1.462885180331921220e-01,1.523456932040773149e-01,1.586788639731029904e-01,1.651121595640667739e-01,1.714977565759509825e-01,1.777510671601696124e-01,1.835989005832108778e-01,1.888423513421991495e-01,1.936979860149854737e-01,1.979133682751693935e-01,2.012195800155796022e-01,2.033622080676933397e-01,2.043705547398519395e-01,2.041527503056226323e-01,2.026478135670551628e-01,1.996206435317167960e-01,1.950362498391297883e-01,1.886285599045927908e-01,1.809260342634307628e-01,1.715387957722809553e-01,1.603060679663995680e-01,1.476571910105052010e-01,1.334756677104038669e-01,1.178320985655024744e-01,1.011049887617274934e-01,8.302174708701874628e-02,6.406414493644904673e-02,4.467783033155504208e-02,2.436749266129937738e-02,3.964034535867235962e-03,-1.616832634834991858e-02,-3.645380971903872808e-02,-5.591736540687221313e-02,-7.454465656856376632e-02
1.381121442910469843e-01,1.329456179711431263e-01,1.254390118906189289e-01,1.155115360727501372e-01,1.032819041828085260e-01,8.933140389647020729e-02,7.325453393169019389e-02,5.600251693366152528e-02,3.756612243539810686e-02,1.800483208388924117e-02,-1.517562646750989430e-03,-2.180762061509144631e-02,-4.159285413827557704e-02,-6.074173674958478070e-02,-7.951683614827863289e-02,-9.660612299513479662e-02,-1.126101014785356041e-01,-1.268546289256382853e-01,-1.390021435074749456e-01,-1.493061831078971446e-01,-1.571532233739957596e-01,-1.626257805882434515e-01,-1.657278883440109207e-01,-1.663005043946446104e-01,-1.642742214256758537e-01,-1.599389904278361030e-01,-1.531935658448431437e-01,-1.440702868873268150e-01,-1.331200297609411720e-01,-1.200070624997282148e-01,-1.052525223384847136e-01,-8.913735785248960708e-02,-7.148902032526635586e-02,-5.316573693902516135e-02,-3.397279789886168549e-02,-1.411236194697827219e-02,5.563193669654573244e-03,2.548021481926370652e-02,4.518145706574033110e-02,6.410646490674351550e-02,8.248766790018063899e-02,9.997212664098330259e-02,1.163592335895143187e-01,1.316439313518209253e-01,1.453747443664603345e-01,1.577941218606522811e-01,1.690243451648701101e-01,1.783778119351523417e-01,1.861775375621451123e-01,1.927063661411073381e-01,1.978014541622827582e-01,2.013041397783148501e-01,2.034800881408433404e-01,2.044268967573668883e-01,2.041274291153026277e-01,2.030320183730870698e-01,2.009603415614085176e-01,1.979605622484146565e-01,1.942008410914663474e-01,1.900605697909972802e-01,1.856553374398539902e-01,1.809739461048117393e-01,1.760211761490292903e-01,1.710610559890651250e-01,1.661671223353410332e-01,1.614528126138764230e-01,1.570235152540462031e-01,1.529858096830740699e-01,1.493766427738630331e-01,1.463156281970885431e-01,1.438301217470885074e-01,1.419758877511610173e-01,1.407082764104818362e-01,1.400618346586461893e-01,1.400618346586462448e-01,1.407082764104818084e-01,1.419758877511608786e-01,1.438301217470880633e-01,1.463156281970885431e-01,1.493766427738631442e-01,1.529858096830742642e-01,1.570235152540463419e-01,1.614528126138765896e-01,1.661671223353412830e-01,1.710610559890653748e-01,1.760211761490299009e-01,1.809739461048120446e-01,1.856553374398540457e-01,1.900605697909972525e-01,1.942008410914664307e-01,1.979605622484149619e-01,2.009603415614089061e-01,2.030320183730870420e-01,2.041274291153027387e-01,2.044268967573673601e-01,2.034800881408432571e-01,2.013041397783148223e-01,1.978014541622829525e-01,1.927063661411075601e-01,1.861775375621451956e-01,1.783778119351523694e-01,1.690243451648701101e-01,1.577941218606525031e-01,1.453747443664604455e-01,1.316439313518206755e-01,1.163592335895141522e-01,9.997212664098313606e-02,8.248766790018055572e-02,6.410646490674322406e-02,4.518145706574026171e-02,2.548021481926349488e-02,5.563193669654364210e-03,-1.411236194697862954e-02,-3.397279789886183121e-02,-5.316573693902514053e-02,-7.148902032526649464e-02,-8.913735785248981525e-02
1.395894206105130764e-01,1.358177262551301667e-01,1.294974239950623940e-01,1.209244979774524997e-01,1.098228429914044624e-01,9.684470548789814170e-02,8.202685969916255482e-02,6.538526101427503956e-02,4.792168666147843259e-02,2.890482946381775844e-02,9.494036556368001117e-03,-1.010718409860940185e-02,-3.020031250560893318e-02,-4.939754684297314319e-02,-6.837664001058678387e-02,-8.631344272034634224e-02,-1.027539394164860426e-01,-1.181006421006020324e-01,-1.313790395089629581e-01,-1.427654629584420298e-01,-1.521735375786482103e-01,-1.591935921963178735e-01,-1.638237881257157691e-01,-1.661494220136557898e-01,-1.659999953941128370e-01,-1.633005536872634000e-01,-1.585261552128224283e-01,-1.512810986545110592e-01,-1.418551375750148336e-01,-1.306946125633093037e-01,-1.174211638772811872e-01,-1.027523983877105390e-01,-8.671283551720317118e-02,-6.929280893378796102e-02,-5.129546693259553342e-02,-3.246472267591111321e-02,-1.312576157543622266e-02,6.126866622621712777e-03,2.547426396858643721e-02,4.454802224263187255e-02,6.306040820261997470e-02,8.090977184376262066e-02,9.782118491911551139e-02,1.138392461318071397e-01,1.288123727565905485e-01,1.422426748041648037e-01,1.543790070887861576e-01,1.655741509360560970e-01,1.750681546793923793e-01,1.830571438807319928e-01,1.897279556396154476e-01,1.951604680186602436e-01,1.992965136687321892e-01,2.021840688739461322e-01,2.038494564941421838e-01,2.043906810028695009e-01,2.040535599594941463e-01,2.031134887431985947e-01,2.013736328975637702e-01,1.989334894783794383e-01,1.959785645959928324e-01,1.926583006471439541e-01,1.891745537875857697e-01,1.856391928583527862e-01,1.820064200018558231e-01,1.784970760440882653e-01,1.751994006432533169e-01,1.720261285706105037e-01,1.691527294572039153e-01,1.666594379892055167e-01,1.646080528174755642e-01,1.630137434236225424e-01,1.618961345207377833e-01,1.613423478140316170e-01,1.613423478140318390e-01,1.618961345207378943e-01,1.630137434236227922e-01,1.646080528174756197e-01,1.666594379892056277e-01,1.691527294572038875e-01,1.720261285706104482e-01,1.751994006432530948e-01,1.784970760440885984e-01,1.820064200018557954e-01,1.856391928583528972e-01,1.891745537875861582e-01,1.926583006471440651e-01,1.959785645959933043e-01,1.989334894783792163e-01,2.013736328975638534e-01,2.031134887431987612e-01,2.040535599594938132e-01,2.043906810028695287e-01,2.038494564941423504e-01,2.021840688739466041e-01,1.992965136687325500e-01,1.951604680186606877e-01,1.897279556396154754e-01,1.830571438807321039e-01,1.750681546793924626e-01,1.655741509360562636e-01,1.543790070887861299e-01,1.422426748041646649e-01,1.288123727565906040e-01,1.138392461318070842e-01,9.782118491911545588e-02,8.090977184376228759e-02,6.306040820262009960e-02,4.454802224263164356e-02,2.547426396858635395e-02,6.126866622621452568e-03,-1.312576157543619490e-02,-3.246472267591149485e-02,-5.129546693259560974e-02,-6.929280893378830797e-02,-8.671283551720328220e-02,-1.027523983877106917e-01
1.405073230344647817e-01,1.381097607492455803e-01,1.330630545511755636e-01,1.256662634239252285e-01,1.159884259662900402e-01,1.040077513300642215e-01,9.045724003399231716e-02,7.475131467861370616e-02,5.782463102975797520e-02,3.992074013848614239e-02,2.073293829437762581e-02,1.575388326845319088e-03,-1.823247014708061914e-02,-3.781469076226050968e-02,-5.664380540958788984e-02,-7.523310503961466722e-02,-9.235731382746108220e-02,-1.082672625050462994e-01,-1.227981991064348022e-01,-1.353234129562681520e-01,-1.459453311288835542e-01,-1.545057176227263851e-01,-1.607754067291181643e-01,-1.646353056468955467e-01,-1.663795636841457481e-01,-1.655935307183558358e-01,-1.623774122645804951e-01,-1.572167535780197023e-01,-1.495767025026438768e-01,-1.400295488556532186e-01,-1.287238228436260179e-01,-1.154475454434201326e-01,-1.009535556875773010e-01,-8.507496895973228057e-02,-6.799549683488488594e-02,-5.036113047503140705e-02,-3.196952251376675852e-02,-1.318168464043171367e-02,5.650235562134157778e-03,2.437990587938365997e-02,4.284122232495816279e-02,6.091701761804144133e-02,7.831409765781577326e-02,9.461662934307650541e-02,1.102094809159829963e-01,1.249786745141733685e-01,1.381814709774304428e-01,1.500970509945999398e-01,1.611081354144629219e-01,1.708370634210304995e-01,1.790322573607835421e-01,1.860077660356815321e-01,1.918031170911010663e-01,1.962982626080410908e-01,1.998797196035639878e-01,2.024407687866593697e-01,2.039214919389134295e-01,2.043757067831563634e-01,2.041949307858069163e-01,2.035300351423617038e-01,2.023605439295132202e-01,2.006105267502520106e-01,1.985103177314574974e-01,1.961866493402320832e-01,1.937560380139663196e-01,1.913353426290269055e-01,1.889639485480076597e-01,1.866528267048742362e-01,1.845824145600530319e-01,1.828084547637774393e-01,1.813457054112830868e-01,1.802060111646110740e-01,1.794087712142485858e-01,1.789924477978998840e-01,1.789924477978996342e-01,1.794087712142488356e-01,1.802060111646114904e-01,1.813457054112826705e-01,1.828084547637772450e-01,1.845824145600530874e-01,1.866528267048743472e-01,1.889639485480078818e-01,1.913353426290269887e-01,1.937560380139665139e-01,1.961866493402320000e-01,1.985103177314574974e-01,2.006105267502519829e-01,2.023605439295128317e-01,2.035300351423617038e-01,2.041949307858068330e-01,2.043757067831565577e-01,2.039214919389134850e-01,2.024407687866593974e-01,1.998797196035637380e-01,1.962982626080412296e-01,1.918031170911010663e-01,1.860077660356816709e-01,1.790322573607837087e-01,1.708370634210305272e-01,1.611081354144631161e-01,1.500970509945999121e-01,1.381814709774301653e-01,1.249786745141732158e-01,1.102094809159830380e-01,9.461662934307647765e-02,7.831409765781568999e-02,6.091701761804121235e-02,4.284122232495798238e-02,2.437990587938350037e-02,5.650235562134062368e-03,-1.318168464043198256e-02,-3.196952251376691118e-02,-5.036113047503154583e-02,-6.799549683488488594e-02,-8.507496895973233608e-02,-1.009535556875775508e-01,-1.154475454434206044e-01
1.407892922085353105e-01,1.396419791435615787e-01,1.360261680483985380e-01,1.298965757850074343e-01,1.216395664518886560e-01,1.108683452940820574e-01,9.820927177130740759e-02,8.391165610903224270e-02,6.769597517414316368e-02,5.066547696530131900e-02,3.220787006130010344e-02,1.314686915182602944e-02,-5.961759038841946655e-03,-2.569078038957002541e-02,-4.470698781318252490e-02,-6.330123919620685158e-02,-8.125423342166215868e-02,-9.778347928049606341e-02,-1.131077991464736060e-01,-1.268247098232067605e-01,-1.386682494055940240e-01,-1.485223453885106404e-01,-1.564335829626840313e-01,-1.620148852885624213e-01,-1.652220452638885895e-01,-1.664522063878373648e-01,-1.650857855882272296e-01,-1.615598655343817580e-01,-1.560674197359790960e-01,-1.482002500126309297e-01,-1.386372429770413861e-01,-1.272886446365922020e-01,-1.141478059639399467e-01,-9.985968158304620035e-02,-8.425706453473337521e-02,-6.760423580403554511e-02,-5.033107515451702013e-02,-3.247574830108538452e-02,-1.426560892459999806e-02,4.105577855437586229e-03,2.225305182668754073e-02,4.005969220013182869e-02,5.763470371614878157e-02,7.459571329191685973e-02,9.043010430660379517e-02,1.054909235167366677e-01,1.200123100851077096e-01,1.331048290685457602e-01,1.449099236313534655e-01,1.557217916867054686e-01,1.654678804531852232e-01,1.739876725521959933e-01,1.813061688924492154e-01,1.874787227943614798e-01,1.924536438494769131e-01,1.964390158061364022e-01,1.997050830824261269e-01,2.020914436551289883e-01,2.035990838593582652e-01,2.042898869194023082e-01,2.043980154331420662e-01,2.041160939457566659e-01,2.035149871611211525e-01,2.025162912000147974e-01,2.013027935183807071e-01,1.999693182696753169e-01,1.984966415056609590e-01,1.970620850141378000e-01,1.957256967172013584e-01,1.945321379639580184e-01,1.934788377042804819e-01,1.926360379833567393e-01,1.920817822217861792e-01,1.917991900657874393e-01,1.917991900657876059e-01,1.920817822217860404e-01,1.926360379833567116e-01,1.934788377042806484e-01,1.945321379639580739e-01,1.957256967172014694e-01,1.970620850141377445e-01,1.984966415056612088e-01,1.999693182696750948e-01,2.013027935183809569e-01,2.025162912000149085e-01,2.035149871611212358e-01,2.041160939457571100e-01,2.043980154331415944e-01,2.042898869194019473e-01,2.035990838593584318e-01,2.020914436551289051e-01,1.997050830824262935e-01,1.964390158061361247e-01,1.924536438494771629e-01,1.874787227943617296e-01,1.813061688924490766e-01,1.739876725521961043e-01,1.654678804531853065e-01,1.557217916867054686e-01,1.449099236313533268e-01,1.331048290685457047e-01,1.200123100851078206e-01,1.054909235167367093e-01,9.043010430660373966e-02,7.459571329191658218e-02,5.763470371614868443e-02,4.005969220013143317e-02,2.225305182668763093e-02,4.105577855437269642e-03,-1.426560892460014031e-02,-3.247574830108567595e-02,-5.033107515451722830e-02,-6.760423580403591981e-02,-8.425706453473363888e-02,-9.985968158304646403e-02,-1.141478059639402798e-01,-1.272886446365922852e-01
1.403180477089879252e-01,1.405640780563722769e-01,1.383707838246750199e-01,1.335805855813087528e-01,1.264656246748729895e-01,1.172409753004122757e-01,1.056895025713195102e-01,9.258438247216478623e-02,7.745442391596499276e-02,6.097270516036367577e-02,4.366776372908761500e-02,2.497227769807497735e-02,6.169189856085438919e-03,-1.302765912701745604e-02,-3.237758185859127003e-02,-5.102280253413986333e-02,-6.928596786540008878e-02,-8.655828974083731864e-02,-1.025631935855164240e-01,-1.172198581115082849e-01,-1.302970532900996625e-01,-1.414952682267464623e-01,-1.506447018573446595e-01,-1.579831377606515930e-01,-1.628815234870556461e-01,-1.656312252859500900e-01,-1.664030504253188048e-01,-1.646131110245545315e-01,-1.608908649380226541e-01,-1.551729458749101509e-01,-1.472075959289378955e-01,-1.376821985339827248e-01,-1.264099334399458319e-01,-1.135008045472303828e-01,-9.947177237753672407e-02,-8.426090634327824958e-02,-6.808168468670248996e-02,-5.121390059342369183e-02,-3.397233900337500584e-02,-1.637603432400090708e-02,1.483555687749734666e-03,1.911328131057996385e-02,3.619363632093741678e-02,5.319345553643396035e-02,6.976978081969739676e-02,8.521260314729033059e-02,9.976805768490278059e-02,1.138341436188293199e-01,1.268856952022477114e-01,1.386276587092052925e-01,1.493830702308709679e-01,1.591222979057059506e-01,1.676691341661118440e-01,1.752926997778640750e-01,1.819753638848433941e-01,1.875643537208600553e-01,1.920018941268762103e-01,1.956466016973154587e-01,1.986825721706819148e-01,2.010812904920466770e-01,2.026994861446555773e-01,2.036904756551669304e-01,2.042362897785175435e-01,2.044474239001731197e-01,2.044260141811837517e-01,2.041298622258993778e-01,2.036038037788550914e-01,2.030054578793151765e-01,2.024268639703421246e-01,2.018702694468884895e-01,2.013730890561029052e-01,2.009578198078130762e-01,2.006603465864822133e-01,2.005148619621042183e-01,2.005148619621040240e-01,2.006603465864824631e-01,2.009578198078134370e-01,2.013730890561031273e-01,2.018702694468885173e-01,2.024268639703420414e-01,2.030054578793152043e-01,2.036038037788552302e-01,2.041298622258995166e-01,2.044260141811837239e-01,2.044474239001730365e-01,2.042362897785177378e-01,2.036904756551672357e-01,2.026994861446552443e-01,2.010812904920467881e-01,1.986825721706821091e-01,1.956466016973155420e-01,1.920018941268762380e-01,1.875643537208600276e-01,1.819753638848434496e-01,1.752926997778640472e-01,1.676691341661115664e-01,1.591222979057056730e-01,1.493830702308710512e-01,1.386276587092053203e-01,1.268856952022475171e-01,1.138341436188294170e-01,9.976805768490264181e-02,8.521260314728990037e-02,6.976978081969728573e-02,5.319345553643357871e-02,3.619363632093734046e-02,1.911328131057955446e-02,1.483555687749682191e-03,-1.637603432400126097e-02,-3.397233900337513074e-02,-5.121390059342416368e-02,-6.808168468670250384e-02,-8.426090634327833284e-02,-9.947177237753689061e-02,-1.135008045472306881e-01,-1.264099334399464425e-01,-1.376821985339830579e-01
1.392022754298166409e-01,1.407636921161320165e-01,1.398359002640823523e-01,1.365634183443051874e-01,1.308208623309660978e-01,1.229700159553669264e-01,1.127328157027574079e-01,1.005601681267998954e-01,8.689435218395392957e-02,7.124018931148612399e-02,5.467996070680253284e-02,3.697556779661956977e-02,1.835541238982577733e-02,-3.395762638009665476e-04,-1.950160964744666880e-02,-3.838771253629322949e-02,-5.673426409497454165e-02,-7.451363149795052487e-02,-9.123052981870184708e-02,-1.067258158821609432e-01,-1.207137482907186254e-01,-1.332382813334537786e-01,-1.437480020295140992e-01,-1.523602750599927225e-01,-1.591683989227025420e-01,-1.635118080948871899e-01,-1.659233131111281789e-01,-1.663260542518174567e-01,-1.642333216205635882e-01,-1.603791401385762649e-01,-1.545463424760552817e-01,-1.466038506191235657e-01,-1.371918181779040735e-01,-1.261083591684947769e-01,-1.135170118401719330e-01,-9.981475615620971631e-02,-8.508547526889519153e-02,-6.943379840235636147e-02,-5.303862156304505610e-02,-3.639666962436617637e-02,-1.949711636632002476e-02,-2.235963918835081471e-03,1.487141179569503695e-02,3.135201680276263059e-02,4.762424263064408275e-02,6.376295418353045141e-02,7.888062429797809694e-02,9.304361158164226042e-02,1.066158931606248084e-01,1.193960975436045707e-01,1.311375693809268272e-01,1.418719282812459237e-01,1.516523100387579537e-01,1.603011069960304791e-01,1.679756073730078458e-01,1.749152142945460675e-01,1.810122508053522983e-01,1.861769826217089252e-01,1.903443588695418187e-01,1.938059160598759323e-01,1.967171457897385345e-01,1.991344159455813723e-01,2.009221469768490420e-01,2.022340691225515408e-01,2.031515207416702828e-01,2.037279652437678501e-01,2.041195914850167381e-01,2.043549431639742620e-01,2.044618543471134198e-01,2.044033018434999183e-01,2.043031870520913007e-01,2.042115225560453828e-01,2.041330487097793855e-01,2.040880650660337192e-01,2.040880650660332751e-01,2.041330487097794411e-01,2.042115225560454939e-01,2.043031870520913007e-01,2.044033018435001681e-01,2.044618543471129479e-01,2.043549431639742897e-01,2.041195914850167381e-01,2.037279652437677391e-01,2.031515207416703384e-01,2.022340691225513187e-01,2.009221469768491530e-01,1.991344159455817608e-01,1.967171457897387288e-01,1.938059160598758768e-01,1.903443588695416522e-01,1.861769826217085644e-01,1.810122508053524371e-01,1.749152142945461785e-01,1.679756073730080679e-01,1.603011069960304791e-01,1.516523100387581202e-01,1.418719282812458959e-01,1.311375693809266607e-01,1.193960975436045430e-01,1.066158931606246418e-01,9.304361158164224654e-02,7.888062429797816633e-02,6.376295418353032651e-02,4.762424263064395091e-02,3.135201680276235303e-02,1.487141179569498491e-02,-2.235963918835339511e-03,-1.949711636632002476e-02,-3.639666962436634984e-02,-5.303862156304541692e-02,-6.943379840235652800e-02,-8.508547526889521928e-02,-9.981475615621009101e-02,-1.135170118401717942e-01,-1.261083591684947769e-01,-1.371918181779045176e-01,-1.466038506191237878e-01
1.372474896434466018e-01,1.401385306542844711e-01,1.406922269068855702e-01,1.388230612364635963e-01,1.344750339819595353e-01,1.278349040700319794e-01,1.192033607572863391e-01,1.082213332610584139e-01,9.564539145007690257e-02,8.131555790256021765e-02,6.542372602646451263e-02,4.869830212662255159e-02,3.072971569333050879e-02,1.230226680458714264e-02,-6.364584783778685570e-03,-2.528558865999359917e-02,-4.377448002937291138e-02,-6.181223165222919647e-02,-7.904216054761106780e-02,-9.531500893803053487e-02,-1.101976025853453750e-01,-1.236404850843044884e-01,-1.356473025027634949e-01,-1.455414545988242270e-01,-1.537269012197665097e-01,-1.600828084402844964e-01,-1.639615539730210070e-01,-1.661081013478283575e-01,-1.662233180823770584e-01,-1.639623473773494100e-01,-1.600620919601160597e-01,-1.542011818754510932e-01,-1.464004155121156614e-01,-1.371810686586120154e-01,-1.263947938098752555e-01,-1.142145101749595937e-01,-1.008792328663986465e-01,-8.671324604402196046e-02,-7.165491583589195246e-02,-5.579739596019015618e-02,-3.971390600528076908e-02,-2.361232108140026015e-02,-7.024700602017934677e-03,9.553274450186376512e-03,2.551329636896174785e-02,4.104864003302252651e-02,5.652272108890874641e-02,7.133802013534186470e-02,8.518681739010995624e-02,9.837247811901168870e-02,1.108123066600722600e-01,1.222866113961112167e-01,1.329337866138350921e-01,1.428257526346943529e-01,1.517413509570703645e-01,1.595237969248640419e-01,1.664627026149903821e-01,1.727650666997812834e-01,1.783989994144397628e-01,1.831694167354874225e-01,1.871359389492943115e-01,1.905226541477963165e-01,1.934208316585395993e-01,1.958908226057438640e-01,1.978301687553642996e-01,1.993159016411115425e-01,2.004866603992480623e-01,2.014254892090206195e-01,2.021413737816488143e-01,2.026694064999985945e-01,2.030734362239697832e-01,2.033434464136723574e-01,2.035312475133236321e-01,2.036461585388010531e-01,2.036461585388009976e-01,2.035312475133236043e-01,2.033434464136720798e-01,2.030734362239696444e-01,2.026694064999988443e-01,2.021413737816487588e-01,2.014254892090207860e-01,2.004866603992481455e-01,1.993159016411115148e-01,1.978301687553642441e-01,1.958908226057438362e-01,1.934208316585399323e-01,1.905226541477963997e-01,1.871359389492944503e-01,1.831694167354873670e-01,1.783989994144396796e-01,1.727650666997809503e-01,1.664627026149902433e-01,1.595237969248640142e-01,1.517413509570703367e-01,1.428257526346943806e-01,1.329337866138351198e-01,1.222866113961110918e-01,1.108123066600720935e-01,9.837247811901171646e-02,8.518681739010976195e-02,7.133802013534186470e-02,5.652272108890869784e-02,4.104864003302226977e-02,2.551329636896164724e-02,9.553274450186150998e-03,-7.024700602017955493e-03,-2.361232108140078403e-02,-3.971390600528079684e-02,-5.579739596019037823e-02,-7.165491583589210511e-02,-8.671324604402232128e-02,-1.008792328663987020e-01,-1.142145101749599684e-01,-1.263947938098753387e-01,-1.371810686586119321e-01,-1.464004155121160777e-01,-1.542011818754512598e-01
1.346191347986442910e-01,1.387944966965123095e-01,1.406684513506288314e-01,1.401552593728026541e-01,1.373768381658105608e-01,1.321540603317287177e-01,1.248306740708845369e-01,1.153523337580638214e-01,1.038477278697506334e-01,9.085108085534200628e-02,7.599490219828405890e-02,5.999476969580605501e-02,4.302488733002006460e-02,2.502527877089438108e-02,6.778432511271639642e-03,-1.181547527396875283e-02,-3.037357621094401161e-02,-4.859243202983133669e-02,-6.617447353846241109e-02,-8.292190129750501293e-02,-9.876771931355922407e-02,-1.130581049897737833e-01,-1.260541472778287098e-01,-1.375849413783518937e-01,-1.469249751833646145e-01,-1.547657550090794643e-01,-1.606932044797971249e-01,-1.642610353155553593e-01,-1.662192426289503255e-01,-1.661114318705394222e-01,-1.638202596051831494e-01,-1.599586825990998440e-01,-1.541791721850468977e-01,-1.466111164062014471e-01,-1.376461547798354945e-01,-1.272691859620873334e-01,-1.155575938453797108e-01,-1.026767306742498997e-01,-8.907822242989110739e-02,-7.471988939095781934e-02,-5.951433929932747890e-02,-4.399822782381541952e-02,-2.859041872839377177e-02,-1.284709035118899653e-02,3.142256832878104113e-03,1.860062935811478482e-02,3.350998257333107078e-02,4.826040735293972428e-02,6.256304111572937032e-02,7.610604697004286212e-02,8.893852708017803421e-02,1.011028297616312771e-01,1.123251060372756904e-01,1.227008827130872115e-01,1.324202439078432381e-01,1.414345908203378799e-01,1.495841659942515611e-01,1.566929914992534201e-01,1.630617037100978162e-01,1.688162154098968859e-01,1.739898897581104165e-01,1.783871057898499535e-01,1.821652806199801355e-01,1.853602589911422793e-01,1.880809750537519309e-01,1.904498946740572074e-01,1.924601343827396227e-01,1.941111566289220325e-01,1.953592959720384381e-01,1.963352718865850333e-01,1.970836503957739128e-01,1.976110267611764226e-01,1.979575842870671676e-01,1.981266951390961706e-01,1.981266951390963926e-01,1.979575842870675562e-01,1.976110267611763116e-01,1.970836503957738017e-01,1.963352718865852276e-01,1.953592959720382716e-01,1.941111566289221990e-01,1.924601343827397892e-01,1.904498946740572907e-01,1.880809750537519864e-01,1.853602589911423626e-01,1.821652806199801633e-01,1.783871057898499257e-01,1.739898897581098891e-01,1.688162154098968304e-01,1.630617037100978162e-01,1.566929914992535033e-01,1.495841659942514501e-01,1.414345908203379076e-01,1.324202439078434046e-01,1.227008827130872115e-01,1.123251060372755655e-01,1.011028297616312771e-01,8.893852708017790931e-02,7.610604697004280661e-02,6.256304111572910664e-02,4.826040735293971040e-02,3.350998257333100139e-02,1.860062935811450380e-02,3.142256832877969239e-03,-1.284709035118908674e-02,-2.859041872839411524e-02,-4.399822782381555830e-02,-5.951433929932756217e-02,-7.471988939095808302e-02,-8.907822242989114903e-02,-1.026767306742503993e-01,-1.155575938453797108e-01,-1.272691859620876387e-01,-1.376461547798356055e-01,-1.466111164062017247e-01,-1.541791721850471475e-01,-1.599586825990997330e-01
1.310331961912297727e-01,1.365630732071815012e-01,1.398046682726911405e-01,1.407796364495208785e-01,1.393816087186723895e-01,1.356740334470991627e-01,1.297056020131958642e-01,1.217552399167623478e-01,1.115543974601233002e-01,9.964690532512623933e-02,8.616417545100295283e-02,7.100951451373442580e-02,5.494833651989339263e-02,3.780322727477617578e-02,1.993563000384146119e-02,1.742318885383419870e-03,-1.660981649798680751e-02,-3.481464190678000559e-02,-5.276111437820012878e-02,-6.985456866156200539e-02,-8.620124316315196100e-02,-1.016189365380485154e-01,-1.153458636038681151e-01,-1.279761869080472958e-01,-1.390075251130749590e-01,-1.479403496618661717e-01,-1.554949775026065739e-01,-1.610602413871773941e-01,-1.644380042510396600e-01,-1.662739585303751599e-01,-1.660550602680311016e-01,-1.638252957356096384e-01,-1.600693511320597784e-01,-1.544878894841213435e-01,-1.472567207577252513e-01,-1.385995007833727977e-01,-1.287033747687057472e-01,-1.175328511452991276e-01,-1.051739089753610940e-01,-9.213995393097954012e-02,-7.859183777872315313e-02,-6.409630582647657393e-02,-4.921890031520811948e-02,-3.440953625881250366e-02,-1.956127454591772771e-02,-4.374705823144956277e-03,1.055839869913417078e-02,2.493973867691672355e-02,3.903463296302724789e-02,5.271749754742961758e-02,6.575035769060481872e-02,7.814138910741694199e-02,9.003946586782250738e-02,1.011860955109723098e-01,1.113489141461301152e-01,1.207212675280420061e-01,1.295185011591778179e-01,1.377079785001865397e-01,1.450619073743407150e-01,1.515691929035700436e-01,1.574409415165573811e-01,1.627409283615926516e-01,1.674841721963952756e-01,1.715804504653533902e-01,1.750749962275999216e-01,1.780550869743013354e-01,1.806167501110091389e-01,1.827683427802220817e-01,1.845722021800980661e-01,1.860395429789637178e-01,1.871837561753842694e-01,1.880490888046558451e-01,1.886047652022872223e-01,1.888533684597543394e-01,1.888533684597540063e-01,1.886047652022871390e-01,1.880490888046559284e-01,1.871837561753842138e-01,1.860395429789637733e-01,1.845722021800977886e-01,1.827683427802220539e-01,1.806167501110092499e-01,1.780550869743015574e-01,1.750749962275998939e-01,1.715804504653534179e-01,1.674841721963951924e-01,1.627409283615924851e-01,1.574409415165576587e-01,1.515691929035699603e-01,1.450619073743405762e-01,1.377079785001865675e-01,1.295185011591777624e-01,1.207212675280418396e-01,1.113489141461301846e-01,1.011860955109724763e-01,9.003946586782234085e-02,7.814138910741677546e-02,6.575035769060465218e-02,5.271749754742976329e-02,3.903463296302701890e-02,2.493973867691670621e-02,1.055839869913399384e-02,-4.374705823145235567e-03,-1.956127454591765485e-02,-3.440953625881271183e-02,-4.921890031520820968e-02,-6.409630582647701802e-02,-7.859183777872343069e-02,-9.213995393097983155e-02,-1.051739089753612744e-01,-1.175328511452996272e-01,-1.287033747687059693e-01,-1.385995007833727977e-01,-1.472567207577254178e-01,-1.544878894841215655e-01,-1.600693511320600559e-01,-1.638252957356096384e-01
1.266169842831835479e-01,1.335466511525444655e-01,1.380924699700993019e-01,1.404304242130558489e-01,1.405248748910944978e-01,1.383653529874030175e-01,1.338281503706489073e-01,1.272041513434206406e-01,1.185850062769705088e-01,1.078554093462030239e-01,9.564886900674436643e-02,8.176518775692552532e-02,6.649464634662129170e-02,5.025331400178728591e-02,3.310938667006487618e-02,1.541946986663892023e-02,-2.696191394129301803e-03,-2.073368292415498498e-02,-3.864627643053869521e-02,-5.627592935394832435e-02,-7.287889445518995479e-02,-8.889092567371777165e-02,-1.038279136245996020e-01,-1.171092675328243154e-01,-1.293947311012874635e-01,-1.399865550242846979e-01,-1.486179424995002496e-01,-1.559155175630727863e-01,-1.612332748754057854e-01,-1.645074792654064866e-01,-1.662732726450208143e-01,-1.660656526792685939e-01,-1.639708687544259857e-01,-1.603810398316097563e-01,-1.551240464588534984e-01,-1.482754142311936418e-01,-1.400132010473724709e-01,-1.306238951554365424e-01,-1.201093589603074580e-01,-1.083988199488771786e-01,-9.594172086196457727e-02,-8.313012024690470680e-02,-6.951096631770264933e-02,-5.531559397820800389e-02,-4.114271157602162471e-02,-2.708761041825256261e-02,-1.277393783692695045e-02,1.467442724158208017e-03,1.528372427347521496e-02,2.874428769384528709e-02,4.188312820271255371e-02,5.436404546806223453e-02,6.621475970123602561e-02,7.756415957464248001e-02,8.842140882056988282e-02,9.857901113080072553e-02,1.078000350535840562e-01,1.163240116134441199e-01,1.242647559311555877e-01,1.316019612548581519e-01,1.381668858057706617e-01,1.440481003334494470e-01,1.492741506211648361e-01,1.539576422965427405e-01,1.581919733795270622e-01,1.619380225277739227e-01,1.651609304549309376e-01,1.678200026152125712e-01,1.700168222226021153e-01,1.718097212079258973e-01,1.731934765142147392e-01,1.742236290207239691e-01,1.749090941506361296e-01,1.752706512335989175e-01,1.752706512335990008e-01,1.749090941506359909e-01,1.742236290207240246e-01,1.731934765142148780e-01,1.718097212079259528e-01,1.700168222226020598e-01,1.678200026152126545e-01,1.651609304549307433e-01,1.619380225277740615e-01,1.581919733795271454e-01,1.539576422965429625e-01,1.492741506211647529e-01,1.440481003334491694e-01,1.381668858057705507e-01,1.316019612548579576e-01,1.242647559311557820e-01,1.163240116134442587e-01,1.078000350535842367e-01,9.857901113080075328e-02,8.842140882056982731e-02,7.756415957464252164e-02,6.621475970123578969e-02,5.436404546806215127e-02,4.188312820271240799e-02,2.874428769384527321e-02,1.528372427347517333e-02,1.467442724158060999e-03,-1.277393783692699382e-02,-2.708761041825282281e-02,-4.114271157602177736e-02,-5.531559397820830920e-02,-6.951096631770285750e-02,-8.313012024690502599e-02,-9.594172086196467442e-02,-1.083988199488773591e-01,-1.201093589603074857e-01,-1.306238951554371253e-01,-1.400132010473725819e-01,-1.482754142311939194e-01,-1.551240464588534984e-01,-1.603810398316098951e-01,-1.639708687544263743e-01,-1.660656526792688992e-01
1.214948429771648131e-01,1.294926156144992624e-01,1.355103759952790421e-01,1.392459866617982156e-01,1.407483593376547548e-01,1.400070351276549718e-01,1.370761483393455327e-01,1.318464024657675926e-01,1.247149842273775761e-01,1.155097921709517111e-01,1.044370200787130831e-01,9.184296570556624295e-02,7.769655078009969629e-02,6.241146519217412314e-02,4.605704774711501248e-02,2.898355752057349757e-02,1.144419285910758255e-02,-6.511798859809738230e-03,-2.420410063644239454e-02,-4.187756445508441366e-02,-5.910359242492684018e-02,-7.529379428218063719e-02,-9.096773808566122055e-02,-1.054538501837685160e-01,-1.183726055649746700e-01,-1.303284879453577849e-01,-1.405685792634024378e-01,-1.489627481578683910e-01,-1.560574147222348607e-01,-1.612175087051249678e-01,-1.644548742065284341e-01,-1.662206145104498656e-01,-1.661375719782546834e-01,-1.642737462690693762e-01,-1.609012931497723897e-01,-1.560323885683511935e-01,-1.496262135300618079e-01,-1.418569935114487313e-01,-1.329864793287704183e-01,-1.232289962425502511e-01,-1.122075494090665898e-01,-1.004512801374147779e-01,-8.826341945094906549e-02,-7.561203865223439791e-02,-6.228396953811596998e-02,-4.880010603732829605e-02,-3.543144891680947983e-02,-2.196409662277976071e-02,-8.548351389011202631e-03,4.581901333202418117e-03,1.731540911633899088e-02,2.985983811956928469e-02,4.195294279259171449e-02,5.331760748412356365e-02,6.403443742026392049e-02,7.431024333410501947e-02,8.411599868917653267e-02,9.321547076125691333e-02,1.015411982615367775e-01,1.092568265274636158e-01,1.163831022710183627e-01,1.229604843532909053e-01,1.288368489484002510e-01,1.340447427257154267e-01,1.386336156895859872e-01,1.426918082631565554e-01,1.462335276855646071e-01,1.493156198460958983e-01,1.519506092032383293e-01,1.541145503155314234e-01,1.558548470261175156e-01,1.570936546333757400e-01,1.579154357636431971e-01,1.583256196650137948e-01,1.583256196650138503e-01,1.579154357636433637e-01,1.570936546333754069e-01,1.558548470261175434e-01,1.541145503155313956e-01,1.519506092032383848e-01,1.493156198460958151e-01,1.462335276855645516e-01,1.426918082631564444e-01,1.386336156895860150e-01,1.340447427257153157e-01,1.288368489484000290e-01,1.229604843532906971e-01,1.163831022710182378e-01,1.092568265274633521e-01,1.015411982615368885e-01,9.321547076125685782e-02,8.411599868917644940e-02,7.431024333410510274e-02,6.403443742026380947e-02,5.331760748412343875e-02,4.195294279259160347e-02,2.985983811956926734e-02,1.731540911633875149e-02,4.581901333202570772e-03,-8.548351389011627638e-03,-2.196409662278004174e-02,-3.543144891680978514e-02,-4.880010603732849034e-02,-6.228396953811637243e-02,-7.561203865223445342e-02,-8.826341945094944019e-02,-1.004512801374155412e-01,-1.122075494090670755e-01,-1.232289962425501539e-01,-1.329864793287704738e-01,-1.418569935114487035e-01,-1.496262135300618079e-01,-1.560323885683513323e-01,-1.609012931497722509e-01,-1.642737462690694872e-01,-1.661375719782547944e-01,-1.662206145104500599e-01
1.155873329527591781e-01,1.246871896949918457e-01,1.319445568446939998e-01,1.370412607693211049e-01,1.399896851623722294e-01,1.407188950821584295e-01,1.393233574087047177e-01,1.356862318450999527e-01,1.299246021458470290e-01,1.222490315994169130e-01,1.125504024055998253e-01,1.012562023300811048e-01,8.835486336872899749e-02,7.404597140982094317e-02,5.873609976897303797e-02,4.234751450259256755e-02,2.543966428049574194e-02,8.011314872563035996e-03,-9.686000227663839335e-03,-2.706049532999986462e-02,-4.445946369796181102e-02,-6.128587812127687245e-02,-7.711638055968532413e-02,-9.244846347871117642e-02,-1.065189522725338428e-01,-1.191327972025537363e-01,-1.307924353365636505e-01,-1.407531216026747245e-01,-1.489824690141561270e-01,-1.558994943481701867e-01,-1.609904099797903332e-01,-1.642953748938746350e-01,-1.661261687269484089e-01,-1.662451189737005897e-01,-1.646671660703041551e-01,-1.616132633229763749e-01,-1.571413957369242609e-01,-1.513000857627921636e-01,-1.441188909117157302e-01,-1.358071430395871304e-01,-1.267777421716227981e-01,-1.165735842580219173e-01,-1.055433413099155227e-01,-9.406357973652726412e-02,-8.229166892054874671e-02,-6.990032548471096507e-02,-5.721346625433230276e-02,-4.460219691122627866e-02,-3.197864711945741512e-02,-1.930888974445109721e-02,-6.955627274991792175e-03,5.040955854349477190e-03,1.674396738050791533e-02,2.821115558167825582e-02,3.921917849393546235e-02,4.951408752054838047e-02,5.922562298217552007e-02,6.846513506428363038e-02,7.715433818029568402e-02,8.518151042514371385e-02,9.256446270828827538e-02,9.930736761984107486e-02,1.055197649969077112e-01,1.112585251753207272e-01,1.164390288427348263e-01,1.210192893316321128e-01,1.249486281810186367e-01,1.283058352974067728e-01,1.311600969417122398e-01,1.334741840691889836e-01,1.353440529120503166e-01,1.367508293790374863e-01,1.377016780187225731e-01,1.381606476477006962e-01,1.381606476477007239e-01,1.377016780187225176e-01,1.367508293790375140e-01,1.353440529120503999e-01,1.334741840691889003e-01,1.311600969417122398e-01,1.283058352974066618e-01,1.249486281810185950e-01,1.210192893316320850e-01,1.164390288427347570e-01,1.112585251753208521e-01,1.055197649969077250e-01,9.930736761984089445e-02,9.256446270828820599e-02,8.518151042514346405e-02,7.715433818029554525e-02,6.846513506428340834e-02,5.922562298217530496e-02,4.951408752054822782e-02,3.921917849393549010e-02,2.821115558167814480e-02,1.674396738050776615e-02,5.040955854349364433e-03,-6.955627274991965647e-03,-1.930888974445120129e-02,-3.197864711945765798e-02,-4.460219691122652153e-02,-5.721346625433245542e-02,-6.990032548471131202e-02,-8.229166892054863569e-02,-9.406357973652770821e-02,-1.055433413099157586e-01,-1.165735842580223891e-01,-1.267777421716226038e-01,-1.358071430395874080e-01,-1.441188909117157857e-01,-1.513000857627920526e-01,-1.571413957369242331e-01,-1.616132633229766247e-01,-1.646671660703041273e-01,-1.662451189737005897e-01,-1.661261687269483256e-01,-1.642953748938748293e-01
1.087437021335265763e-01,1.190076459047214319e-01,1.273902742492660500e-01,1.338846867305772681e-01,1.382572601419535807e-01,1.404673407933620943e-01,1.405375226084205065e-01,1.384942686598884809e-01,1.342053828297110341e-01,1.280329809360951365e-01,1.198812416940261416e-01,1.098189977822433966e-01,9.832303948422005391e-02,8.519023553915180957e-02,7.084529638001846319e-02,5.549411892955354031e-02,3.917683285015480243e-02,2.245113952484435391e-02,5.177537565229132013e-03,-1.222467592536811629e-02,-2.930551411007486021e-02,-4.640412165728632216e-02,-6.281950408270130237e-02,-7.833055022095458675e-02,-9.332279997786856185e-02,-1.070279217537503796e-01,-1.194022346442580873e-01,-1.307836258011005337e-01,-1.405363089346382821e-01,-1.486719425022072216e-01,-1.554808276681556301e-01,-1.605753006427127483e-01,-1.640175457469846554e-01,-1.659734866822376864e-01,-1.663330161186042655e-01,-1.650881121383515338e-01,-1.624590234234754016e-01,-1.584256570426995359e-01,-1.532287868970272637e-01,-1.466560259371095798e-01,-1.390515132973961510e-01,-1.306113715451026891e-01,-1.213649477241670188e-01,-1.111921468519094791e-01,-1.004910040699009827e-01,-8.949860048266951307e-02,-7.805564010485788184e-02,-6.631458703614399874e-02,-5.448824901688297667e-02,-4.278460977983276903e-02,-3.096468294796824589e-02,-1.925807068851648207e-02,-7.958428124999450057e-03,2.911700507535564062e-03,1.352028241724763033e-02,2.384410364130667634e-02,3.367941413597005940e-02,4.290383820920402186e-02,5.161922368346694157e-02,5.981721580438921493e-02,6.753994704641799740e-02,7.458402612772233042e-02,8.101362725571535639e-02,8.677739488036298465e-02,9.200172112613826114e-02,9.667264425489800750e-02,1.008758663030820540e-01,1.045596002187708651e-01,1.076969298290159083e-01,1.103050046768239423e-01,1.123228830332544531e-01,1.138221168976851633e-01,1.148117760882155086e-01,1.153031426971565798e-01,1.153031426971565937e-01,1.148117760882156474e-01,1.138221168976853298e-01,1.123228830332542866e-01,1.103050046768239145e-01,1.076969298290159083e-01,1.045596002187708096e-01,1.008758663030820540e-01,9.667264425489800750e-02,9.200172112613812236e-02,8.677739488036290139e-02,8.101362725571525925e-02,7.458402612772227491e-02,6.753994704641787250e-02,5.981721580438912472e-02,5.161922368346694157e-02,4.290383820920399410e-02,3.367941413596996225e-02,2.384410364130660348e-02,1.352028241724757482e-02,2.911700507535378013e-03,-7.958428124999772715e-03,-1.925807068851648901e-02,-3.096468294796858242e-02,-4.278460977983290087e-02,-5.448824901688311545e-02,-6.631458703614410977e-02,-7.805564010485810389e-02,-8.949860048266954082e-02,-1.004910040699011492e-01,-1.111921468519099093e-01,-1.213649477241673519e-01,-1.306113715451026613e-01,-1.390515132973959289e-01,-1.466560259371096075e-01,-1.532287868970272637e-01,-1.584256570426997024e-01,-1.624590234234753183e-01,-1.650881121383515060e-01,-1.663330161186043488e-01,-1.659734866822380195e-01,-1.640175457469847942e-01,-1.605753006427128315e-01
1.010042306558244368e-01,1.124512601458523831e-01,1.220014214643789369e-01,1.297095470503058234e-01,1.354905139263982428e-01,1.391832272176712348e-01,1.406722267628496836e-01,1.401855596597863518e-01,1.375542199839681623e-01,1.327464347217814367e-01,1.262169486736522961e-01,1.176584487713031452e-01,1.073625279088739198e-01,9.566934000301194341e-02,8.240400544567506869e-02,6.809382938242206085e-02,5.273810833419745325e-02,3.656983033362645741e-02,2.005016507528534914e-02,2.951152623772321411e-03,-1.410965659610552946e-02,-3.089072130531780522e-02,-4.768227197602217110e-02,-6.372069064182905862e-02,-7.894767967311920598e-02,-9.360491118614729100e-02,-1.070165804968757767e-01,-1.191885998201117625e-01,-1.303053612262018990e-01,-1.398967889022604549e-01,-1.480216702709153953e-01,-1.547906540421241928e-01,-1.599567221416057505e-01,-1.635650688538506370e-01,-1.657320977042146259e-01,-1.663666649409256959e-01,-1.655445513403582536e-01,-1.633992637353380850e-01,-1.598605092791862137e-01,-1.553285222441858349e-01,-1.494378291534140257e-01,-1.425432366896435821e-01,-1.348219687071057771e-01,-1.264542994419456667e-01,-1.171969310545336040e-01,-1.073222695652257391e-01,-9.719652276157765558e-02,-8.671972653946834197e-02,-7.584797630568275439e-02,-6.493487262240600633e-02,-5.408208907090941014e-02,-4.329108840916265355e-02,-3.246948511037351520e-02,-2.182071246264212852e-02,-1.158423754752800801e-02,-1.758878280494484371e-03,7.748983255074742664e-03,1.685270994029833616e-02,2.546906100566556294e-02,3.357139547864946422e-02,4.112587843811497251e-02,4.822044689449395821e-02,5.486316596432153081e-02,6.098989257413466036e-02,6.650865986977151645e-02,7.137550922912969109e-02,7.564571967929829832e-02,7.937107682566135747e-02,8.251487997561954280e-02,8.517668156085070330e-02,8.734454292529848785e-02,8.896346878813388148e-02,9.004473787259137385e-02,9.058639167691440175e-02,9.058639167691436012e-02,9.004473787259138773e-02,8.896346878813399250e-02,8.734454292529847397e-02,8.517668156085064779e-02,8.251487997561959831e-02,7.937107682566141298e-02,7.564571967929827057e-02,7.137550922912974660e-02,6.650865986977154420e-02,6.098989257413462567e-02,5.486316596432137815e-02,4.822044689449389576e-02,4.112587843811493782e-02,3.357139547864925605e-02,2.546906100566538947e-02,1.685270994029813840e-02,7.748983255074721847e-03,-1.758878280494422571e-03,-1.158423754752785709e-02,-2.182071246264224301e-02,-3.246948511037385521e-02,-4.329108840916293804e-02,-5.408208907090949341e-02,-6.493487262240602020e-02,-7.584797630568282378e-02,-8.671972653946866116e-02,-9.719652276157797477e-02,-1.073222695652255726e-01,-1.171969310545340481e-01,-1.264542994419461386e-01,-1.348219687071059436e-01,-1.425432366896435266e-01,-1.494378291534143866e-01,-1.553285222441856128e-01,-1.598605092791866022e-01,-1.633992637353385013e-01,-1.655445513403582258e-01,-1.663666649409257792e-01,-1.657320977042148757e-01,-1.635650688538506370e-01,-1.599567221416055840e-01,-1.547906540421244426e-01
9.265885883724161998e-02,1.049307755977547524e-01,1.156942846919160744e-01,1.246090493180228576e-01,1.316179792523870518e-01,1.367640800223759445e-01,1.398234875405712230e-01,1.407021800788697818e-01,1.397446714471224649e-01,1.365780792926529208e-01,1.313719712635117720e-01,1.245039027124357767e-01,1.156198215888725594e-01,1.052072507448157807e-01,9.334354119265547700e-02,8.005302803374982068e-02,6.582144663815990560e-02,5.050237281385349525e-02,3.455604389301880630e-02,1.824429027968189898e-02,1.369581195779387634e-03,-1.534612073588681805e-02,-3.186069413112090770e-02,-4.831311900039398505e-02,-6.401469478602335450e-02,-7.897532162607698303e-02,-9.331004689256096329e-02,-1.064646577139905514e-01,-1.184733762795326245e-01,-1.293775683212738947e-01,-1.388606888281561091e-01,-1.470151197314200631e-01,-1.538126805078974257e-01,-1.590598487070531974e-01,-1.628570076446835269e-01,-1.653619130633843526e-01,-1.663049124038962212e-01,-1.659662977738114442e-01,-1.643002046852030940e-01,-1.614132619040606342e-01,-1.574043073039140817e-01,-1.523637226584430848e-01,-1.462500496627894553e-01,-1.393116350992544272e-01,-1.317460568402967491e-01,-1.234473757177863840e-01,-1.145474463486384764e-01,-1.052255125831424859e-01,-9.575646462317667640e-02,-8.589879483176798836e-02,-7.581917620992671691e-02,-6.579482834487816734e-02,-5.594418271221045930e-02,-4.615212733638006382e-02,-3.644258072867972292e-02,-2.694198389547921776e-02,-1.782751860269637598e-02,-9.072109109491570400e-03,-6.669316001650423941e-04,7.350446677230549480e-03,1.483517210301282287e-02,2.180187854940086531e-02,2.816498719400215706e-02,3.403299710955187685e-02,3.940969736252854932e-02,4.435575854901267073e-02,4.878602638206623598e-02,5.266475906969995957e-02,5.597885580888221912e-02,5.870713052421211442e-02,6.086307420829205339e-02,6.246937970840848314e-02,6.351192573049886658e-02,6.403217260797801347e-02,6.403217260797793020e-02,6.351192573049883883e-02,6.246937970840837906e-02,6.086307420829198400e-02,5.870713052421211442e-02,5.597885580888219137e-02,5.266475906969990406e-02,4.878602638206620823e-02,4.435575854901253889e-02,3.940969736252846606e-02,3.403299710955165480e-02,2.816498719400213277e-02,2.180187854940091041e-02,1.483517210301267368e-02,7.350446677230513051e-03,-6.669316001652519704e-04,-9.072109109491769893e-03,-1.782751860269644537e-02,-2.694198389547943634e-02,-3.644258072867993803e-02,-4.615212733637998749e-02,-5.594418271221074379e-02,-6.579482834487848653e-02,-7.581917620992688345e-02,-8.589879483176807162e-02,-9.575646462317670415e-02,-1.052255125831427773e-01,-1.145474463486386429e-01,-1.234473757177866476e-01,-1.317460568402969434e-01,-1.393116350992544550e-01,-1.462500496627896773e-01,-1.523637226584430571e-01,-1.574043073039142204e-01,-1.614132619040607175e-01,-1.643002046852033993e-01,-1.659662977738114442e-01,-1.663049124038961935e-01,-1.653619130633842416e-01,-1.628570076446834713e-01,-1.590598487070534195e-01,-1.538126805078974813e-01,-1.470151197314203961e-01
8.360882122054778820e-02,9.668315839437363612e-02,1.083661262007083737e-01,1.184902870076404574e-01,1.268053053189271417e-01,1.331868615314800997e-01,1.378019674935806738e-01,1.402648166011756514e-01,1.406317487027774205e-01,1.392220591050074285e-01,1.355810979683806095e-01,1.301167793107217141e-01,1.229316864013466765e-01,1.138471585360469884e-01,1.033759363187753133e-01,9.140207696949609328e-02,7.817363789266117136e-02,6.403051553442752619e-02,4.882266233696939961e-02,3.311483602790084302e-02,1.701992907120701212e-02,4.318956269122757380e-04,-1.597319569479374243e-02,-3.220475332964502224e-02,-4.829447523954782245e-02,-6.369665043597633192e-02,-7.841398430973768596e-02,-9.241003484631520049e-02,-1.053347564043063400e-01,-1.172402314906730164e-01,-1.279949495739992893e-01,-1.374151945196009084e-01,-1.456075743296805780e-01,-1.524949854566535756e-01,-1.578820800536681612e-01,-1.619171580704213409e-01,-1.647732136565298877e-01,-1.661148658346282281e-01,-1.663088576178905487e-01,-1.651379190612705106e-01,-1.628836285991262511e-01,-1.595445694037288809e-01,-1.552966461586709479e-01,-1.500006367159702758e-01,-1.438427849398118130e-01,-1.371629094360614365e-01,-1.298588550800696406e-01,-1.218670818596300498e-01,-1.135001067601695002e-01,-1.049086461067748888e-01,-9.615176269089835415e-02,-8.712030648632360097e-02,-7.796657869576631428e-02,-6.888650788522805712e-02,-6.000845347520403217e-02,-5.125836728457849184e-02,-4.273336009495935783e-02,-3.446574018359594566e-02,-2.651622655348167407e-02,-1.896942050042306482e-02,-1.176674169947245809e-02,-4.902444115582831226e-03,1.530934180650019103e-03,7.416345086851214123e-03,1.275632662493947876e-02,1.752682827741008920e-02,2.176811165920615812e-02,2.547686634480915771e-02,2.872161489724080197e-02,3.147725507309456772e-02,3.367653839627814810e-02,3.534093659486179512e-02,3.646540927983318858e-02,3.703338736323579655e-02,3.703338736323584512e-02,3.646540927983318164e-02,3.534093659486175348e-02,3.367653839627807177e-02,3.147725507309452608e-02,2.872161489724080891e-02,2.547686634480916812e-02,2.176811165920616506e-02,1.752682827741014818e-02,1.275632662493924804e-02,7.416345086851116979e-03,1.530934180649829151e-03,-4.902444115583100975e-03,-1.176674169947267840e-02,-1.896942050042313768e-02,-2.651622655348141733e-02,-3.446574018359591096e-02,-4.273336009495933702e-02,-5.125836728457867225e-02,-6.000845347520409462e-02,-6.888650788522825141e-02,-7.796657869576656408e-02,-8.712030648632372587e-02,-9.615176269089865946e-02,-1.049086461067748749e-01,-1.135001067601693198e-01,-1.218670818596305078e-01,-1.298588550800693353e-01,-1.371629094360619361e-01,-1.438427849398119518e-01,-1.500006367159702203e-01,-1.552966461586710867e-01,-1.595445694037291584e-01,-1.628836285991262789e-01,-1.651379190612705106e-01,-1.663088576178909650e-01,-1.661148658346282558e-01,-1.647732136565298600e-01,-1.619171580704215629e-01,-1.578820800536687996e-01,-1.524949854566533536e-01,-1.456075743296807723e-01,-1.374151945196009639e-01
7.372256834328005937e-02,8.764942893714028349e-02,1.002326936332658125e-01,1.113475081188831234e-01,1.209355975136474776e-01,1.286740736705771493e-01,1.344903189240654051e-01,1.385934926555574820e-01,1.404948868561271547e-01,1.404936287844884557e-01,1.386574946729077495e-01,1.346632252842999700e-01,1.290132954230724383e-01,1.215735077257645014e-01,1.123818891741963782e-01,1.018709931429073456e-01,8.987024287006437073e-02,7.675233591831524815e-02,6.272884899145431126e-02,4.769780465088770127e-02,3.223081609724235547e-02,1.639424952929040280e-02,1.337630705272281953e-04,-1.597911448288085942e-02,-3.191755296989317453e-02,-4.763880136335482685e-02,-6.275781314149000978e-02,-7.725173709698950064e-02,-9.093180841324334518e-02,-1.036529303214307335e-01,-1.154746418162676952e-01,-1.261597385404189253e-01,-1.355005804157679572e-01,-1.437131042706838169e-01,-1.508156075623645620e-01,-1.563791638495091452e-01,-1.606897947735488885e-01,-1.638592733389355183e-01,-1.657469228222302471e-01,-1.663557041988563967e-01,-1.658567748682945042e-01,-1.642407500177357760e-01,-1.616087752782644493e-01,-1.581129906746141511e-01,-1.536984041366574461e-01,-1.484558453239713527e-01,-1.425222524027206228e-01,-1.362067775599239139e-01,-1.292916783554659554e-01,-1.218604078127897283e-01,-1.141427742644977039e-01,-1.063394318891110885e-01,-9.839414512861360818e-02,-9.033105590421484921e-02,-8.218754756464691225e-02,-7.416858068556070327e-02,-6.631571084002715888e-02,-5.860674246608503501e-02,-5.116174243596049304e-02,-4.404727470595890676e-02,-3.729986743367777469e-02,-3.103721424730221737e-02,-2.513556292472032480e-02,-1.958860030777384575e-02,-1.440311407548383084e-02,-9.672617999403046105e-03,-5.437801760028717832e-03,-1.723905122024835517e-03,1.454171093725074772e-03,4.067830983277223242e-03,6.159907638693220763e-03,7.701377033147993600e-03,8.743362457463106641e-03,9.266386108289836887e-03,9.266386108289741477e-03,8.743362457463150009e-03,7.701377033148077735e-03,6.159907638693262397e-03,4.067830983277308243e-03,1.454171093725088650e-03,-1.723905122024929192e-03,-5.437801760028854008e-03,-9.672617999403051309e-03,-1.440311407548387247e-02,-1.958860030777406780e-02,-2.513556292472039072e-02,-3.103721424730248452e-02,-3.729986743367793428e-02,-4.404727470595894839e-02,-5.116174243596068733e-02,-5.860674246608540278e-02,-6.631571084002733929e-02,-7.416858068556082817e-02,-8.218754756464691225e-02,-9.033105590421497411e-02,-9.839414512861376083e-02,-1.063394318891111578e-01,-1.141427742644982035e-01,-1.218604078127898255e-01,-1.292916783554662608e-01,-1.362067775599239416e-01,-1.425222524027206228e-01,-1.484558453239711029e-01,-1.536984041366574738e-01,-1.581129906746146230e-01,-1.616087752782645326e-01,-1.642407500177362756e-01,-1.658567748682943377e-01,-1.663557041988564800e-01,-1.657469228222301638e-01,-1.638592733389354628e-01,-1.606897947735489995e-01,-1.563791638495091729e-01,-1.508156075623646453e-01,-1.437131042706838446e-01,-1.355005804157677629e-01,-1.261597385404188698e-01
6.324065736472218868e-02,7.782236974714351607e-02,9.127440573151526793e-02,1.033729799012098882e-01,1.139350279815595363e-01,1.230267131951055942e-01,1.301776016799908731e-01,1.355656779605756423e-01,1.391846499722111385e-01,1.406192685772531537e-01,1.403282608039018164e-01,1.381275301098869868e-01,1.338655939333987521e-01,1.280564674722075857e-01,1.204475198486727461e-01,1.112193907299955375e-01,1.007152782324085838e-01,8.875745352602243399e-02,7.578364878205059996e-02,6.193645435927851162e-02,4.713831251287098345e-02,3.193323988176800104e-02,1.636976495006282201e-02,4.661814872496010463e-04,-1.533550482999073393e-02,-3.100026517641732079e-02,-4.634294562751477969e-02,-6.115861610202592835e-02,-7.546679790225006845e-02,-8.889734662320394887e-02,-1.014171641904734883e-01,-1.131416918226387375e-01,-1.237970031216358568e-01,-1.331247436108137228e-01,-1.413726319687146071e-01,-1.486839316588362270e-01,-1.545061663189092327e-01,-1.591700550054336583e-01,-1.626109103636422248e-01,-1.650014031110331736e-01,-1.661801428206484965e-01,-1.663098365730722172e-01,-1.653472713171967590e-01,-1.633841354336803831e-01,-1.607015818416354658e-01,-1.572203705982143929e-01,-1.528417087000364660e-01,-1.478137870624648131e-01,-1.423178177336812955e-01,-1.364615611344572321e-01,-1.301350067339667738e-01,-1.234188018783108770e-01,-1.164418776503504394e-01,-1.094449297449075764e-01,-1.023778906066704353e-01,-9.534930401197393157e-02,-8.832933758032644744e-02,-8.139722769892218657e-02,-7.469257023170715326e-02,-6.815439358465473496e-02,-6.182204102237218168e-02,-5.578511001624193028e-02,-5.016407796054855872e-02,-4.493229866122808169e-02,-4.016731984680349532e-02,-3.585846491261953511e-02,-3.198155368071822768e-02,-2.850266355630552001e-02,-2.545793907125277339e-02,-2.290490447985309153e-02,-2.083974292327115882e-02,-1.927041163757837669e-02,-1.823024403804002214e-02,-1.771418682142586812e-02,-1.771418682142603465e-02,-1.823024403804020255e-02,-1.927041163757838710e-02,-2.083974292327134270e-02,-2.290490447985317826e-02,-2.545793907125296421e-02,-2.850266355630545409e-02,-3.198155368071833177e-02,-3.585846491261967389e-02,-4.016731984680351614e-02,-4.493229866122843558e-02,-5.016407796054880158e-02,-5.578511001624202048e-02,-6.182204102237173066e-02,-6.815439358465487374e-02,-7.469257023170706999e-02,-8.139722769892245025e-02,-8.832933758032633642e-02,-9.534930401197386218e-02,-1.023778906066705879e-01,-1.094449297449076042e-01,-1.164418776503508834e-01,-1.234188018783109742e-01,-1.301350067339669125e-01,-1.364615611344572876e-01,-1.423178177336814898e-01,-1.478137870624650352e-01,-1.528417087000367991e-01,-1.572203705982145039e-01,-1.607015818416353548e-01,-1.633841354336805218e-01,-1.653472713171969255e-01,-1.663098365730723838e-01,-1.661801428206483577e-01,-1.650014031110331181e-01,-1.626109103636422804e-01,-1.591700550054333807e-01,-1.545061663189092604e-01,-1.486839316588363935e-01,-1.413726319687144961e-01,-1.331247436108137783e-01,-1.237970031216356626e-01,-1.131416918226387375e-01
5.225013612292325749e-02,6.734455174854238335e-02,8.145149668123441433e-02,9.448853179122519708e-02,1.060463504578162963e-01,1.161730008199184372e-01,1.247847718329646027e-01,1.314144266180473641e-01,1.364490259994599608e-01,1.396363592970361889e-01,1.406771014467564918e-01,1.401369406574677901e-01,1.376260434249731990e-01,1.331946696373498551e-01,1.272825972538788042e-01,1.195597472646705572e-01,1.103672672688854328e-01,9.993468332399813026e-02,8.807868690569448100e-02,7.528104568358166826e-02,6.166594292592104259e-02,4.714771090321288188e-02,3.221349320230695173e-02,1.694220561365757799e-02,1.425690010222683234e-03,-1.405352221759164320e-02,-2.945327332174130230e-02,-4.440732918089391329e-02,-5.892385425874101246e-02,-7.304056653877261107e-02,-8.630970388734350573e-02,-9.858310513082448046e-02,-1.101657421041681156e-01,-1.208979330225988663e-01,-1.302629740386464230e-01,-1.385508383949549394e-01,-1.459885653920585669e-01,-1.522122070888870249e-01,-1.571435930606137621e-01,-1.610319821773596172e-01,-1.638588894373098626e-01,-1.656080381225474574e-01,-1.663686646579560779e-01,-1.661373827995004937e-01,-1.649484804860357756e-01,-1.628919079601364173e-01,-1.602789402655662998e-01,-1.569354264096228802e-01,-1.528552628508346167e-01,-1.481950093682333214e-01,-1.432155109710794572e-01,-1.379208190328106709e-01,-1.323339164090114317e-01,-1.264038102539274677e-01,-1.203335801657950677e-01,-1.142104000643114486e-01,-1.080309478874103002e-01,-1.019610036615011400e-01,-9.599943677727376667e-02,-9.022997172353358630e-02,-8.473989122488159720e-02,-7.943919075015291875e-02,-7.434844534768159097e-02,-6.950950709856743015e-02,-6.501347764748913183e-02,-6.090567587220077628e-02,-5.720350852816405429e-02,-5.395822227697462392e-02,-5.120086715858792464e-02,-4.889159226566296146e-02,-4.704197642724402412e-02,-4.565903685406091234e-02,-4.472720930604647677e-02,-4.425242887196304681e-02,-4.425242887196320640e-02,-4.472720930604650452e-02,-4.565903685406108581e-02,-4.704197642724396167e-02,-4.889159226566305860e-02,-5.120086715858786219e-02,-5.395822227697452678e-02,-5.720350852816399184e-02,-6.090567587220076240e-02,-6.501347764748893754e-02,-6.950950709856738852e-02,-7.434844534768145219e-02,-7.943919075015296039e-02,-8.473989122488194414e-02,-9.022997172353360018e-02,-9.599943677727423852e-02,-1.019610036615012510e-01,-1.080309478874101892e-01,-1.142104000643114486e-01,-1.203335801657952620e-01,-1.264038102539274955e-01,-1.323339164090117925e-01,-1.379208190328108929e-01,-1.432155109710796792e-01,-1.481950093682334879e-01,-1.528552628508350331e-01,-1.569354264096226859e-01,-1.602789402655666329e-01,-1.628919079601365838e-01,-1.649484804860353870e-01,-1.661373827995008823e-01,-1.663686646579563833e-01,-1.656080381225470965e-01,-1.638588894373098626e-01,-1.610319821773594506e-01,-1.571435930606139564e-01,-1.522122070888870249e-01,-1.459885653920587889e-01,-1.385508383949551614e-01,-1.302629740386465063e-01,-1.208979330225988108e-01,-1.101657421041676993e-01,-9.858310513082446658e-02
4.073474598089509707e-02,5.627259839166819100e-02,7.093523546353880382e-02,8.465910603013505897e-02,9.728490531059966195e-02,1.083284676794112888e-01,1.180892888283314318e-01,1.262512307109883158e-01,1.324173824194395943e-01,1.371428440807214155e-01,1.399201422957792040e-01,1.406862547997707880e-01,1.399492936665837628e-01,1.371809130361846540e-01,1.326686760204580373e-01,1.267126042457578927e-01,1.189594307245507299e-01,1.098441158494083414e-01,9.953269537101651354e-02,8.785617995125941104e-02,7.527311575674870692e-02,6.190750749478881459e-02,4.772368084536935534e-02,3.310898996013848794e-02,1.812318073750220776e-02,3.013800048438752214e-03,-1.210297431601866681e-02,-2.725196631093046787e-02,-4.187386519926433737e-02,-5.606255742529073910e-02,-6.995110307880994527e-02,-8.307437370177295222e-02,-9.518765055638350736e-02,-1.065995708368870365e-01,-1.173844954639665789e-01,-1.268525104217878563e-01,-1.352802045453317392e-01,-1.427509592483693357e-01,-1.493097246722212279e-01,-1.546605750520752831e-01,-1.589598844507248143e-01,-1.622311003145282260e-01,-1.644773761145766344e-01,-1.659038734689534667e-01,-1.664566274531626977e-01,-1.660166258219626378e-01,-1.647359269203353127e-01,-1.628092884977625221e-01,-1.603811025090389475e-01,-1.573545988246867477e-01,-1.537292960741730996e-01,-1.495526463413804907e-01,-1.451465734713504041e-01,-1.404890370439760283e-01,-1.356987354803776968e-01,-1.306847352769552606e-01,-1.255271073282520633e-01,-1.203900572533627283e-01,-1.152436344495200160e-01,-1.101534033976793447e-01,-1.051855673924131651e-01,-1.004520765996048254e-01,-9.591980748158424053e-02,-9.173306875272618788e-02,-8.787593678745798942e-02,-8.432812373562741104e-02,-8.104293247284038992e-02,-7.808050153863579923e-02,-7.550488859264681274e-02,-7.332702029746905603e-02,-7.156310091477618984e-02,-7.022364033737757416e-02,-6.930868679038806879e-02,-6.885645894317303506e-02,-6.885645894317307669e-02,-6.930868679038795777e-02,-7.022364033737760192e-02,-7.156310091477631474e-02,-7.332702029746911154e-02,-7.550488859264682662e-02,-7.808050153863578535e-02,-8.104293247284040380e-02,-8.432812373562770247e-02,-8.787593678745805881e-02,-9.173306875272639604e-02,-9.591980748158436543e-02,-1.004520765996051168e-01,-1.051855673924131512e-01,-1.101534033976795113e-01,-1.152436344495202936e-01,-1.203900572533628949e-01,-1.255271073282520633e-01,-1.306847352769555382e-01,-1.356987354803778079e-01,-1.404890370439759451e-01,-1.451465734713505429e-01,-1.495526463413806018e-01,-1.537292960741732106e-01,-1.573545988246869420e-01,-1.603811025090390585e-01,-1.628092884977626054e-01,-1.647359269203353682e-01,-1.660166258219625823e-01,-1.664566274531628642e-01,-1.659038734689531613e-01,-1.644773761145767177e-01,-1.622311003145278929e-01,-1.589598844507246478e-01,-1.546605750520752554e-01,-1.493097246722213389e-01,-1.427509592483695300e-01,-1.352802045453318780e-01,-1.268525104217878285e-01,-1.173844954639667176e-01,-1.065995708368870087e-01,-9.518765055638343797e-02,-8.307437370177288283e-02
2.878568145386550467e-02,4.458586772369368956e-02,5.983951185110153448e-02,7.406548027791486077e-02,8.745094279022348760e-02,9.967561237477311209e-02,1.102479911659508399e-01,1.196866939190777551e-01,1.273999292714035059e-01,1.332175833794745357e-01,1.376715016385370860e-01,1.400934384432344637e-01,1.406721190999251914e-01,1.397722434920725121e-01,1.368574268231541879e-01,1.323084260559524161e-01,1.263561693032671518e-01,1.186725906995522994e-01,1.096625520286532984e-01,9.952632416904168278e-02,8.810803652281179454e-02,7.575515892261287798e-02,6.266923739407856409e-02,4.887628625347879147e-02,3.459366700046524745e-02,1.990334143628738270e-02,5.223058045742779397e-03,-9.515102541484913440e-03,-2.438743680194208757e-02,-3.875679404389117955e-02,-5.255079434685500789e-02,-6.615291834914584224e-02,-7.921728815200587692e-02,-9.121675646900946621e-02,-1.024335710251442350e-01,-1.131534497699026309e-01,-1.228416320571483339e-01,-1.313732815168649481e-01,-1.390330108939272502e-01,-1.457903453629090240e-01,-1.515397498542351840e-01,-1.562866207753015879e-01,-1.600836822304544105e-01,-1.628999078023829206e-01,-1.647789370494816552e-01,-1.660033254515694556e-01,-1.664556930860431605e-01,-1.660469425497337892e-01,-1.648433207717258930e-01,-1.631368978735219244e-01,-1.609899207997679826e-01,-1.584214364123557039e-01,-1.553038775051861498e-01,-1.518116163054738232e-01,-1.480488616590302231e-01,-1.440664040676283286e-01,-1.400138968758410096e-01,-1.358726611452553412e-01,-1.317083467608281822e-01,-1.276169929809727877e-01,-1.235246136003819301e-01,-1.194926592374642299e-01,-1.155826572249597783e-01,-1.118692260877331146e-01,-1.084002165264395245e-01,-1.051735423879727599e-01,-1.023092175617143357e-01,-9.976726038192329504e-02,-9.756350377764716475e-02,-9.572709142803388638e-02,-9.422761879991066458e-02,-9.308123226097143876e-02,-9.230763299408464850e-02,-9.192394512318412259e-02,-9.192394512318421973e-02,-9.230763299408475953e-02,-9.308123226097136937e-02,-9.422761879991052580e-02,-9.572709142803387250e-02,-9.756350377764713699e-02,-9.976726038192350321e-02,-1.023092175617141691e-01,-1.051735423879728848e-01,-1.084002165264396633e-01,-1.118692260877334060e-01,-1.155826572249599171e-01,-1.194926592374642160e-01,-1.235246136003817913e-01,-1.276169929809728154e-01,-1.317083467608284320e-01,-1.358726611452554522e-01,-1.400138968758412594e-01,-1.440664040676290225e-01,-1.480488616590303341e-01,-1.518116163054737677e-01,-1.553038775051861775e-01,-1.584214364123560925e-01,-1.609899207997680659e-01,-1.631368978735218411e-01,-1.648433207717258098e-01,-1.660469425497341500e-01,-1.664556930860432160e-01,-1.660033254515695389e-01,-1.647789370494816275e-01,-1.628999078023828095e-01,-1.600836822304544382e-01,-1.562866207753018377e-01,-1.515397498542351007e-01,-1.457903453629089408e-01,-1.390330108939272780e-01,-1.313732815168649481e-01,-1.228416320571483616e-01,-1.131534497699024366e-01,-1.024335710251444154e-01,-9.121675646900945233e-02,-7.921728815200557161e-02,-6.615291834914578672e-02
1.658522656038329685e-02,3.246277600364970428e-02,4.799864159921808648e-02,6.293935724535404397e-02,7.676133517752414814e-02,8.985466252118742836e-02,1.016414112837167871e-01,1.118474445207547907e-01,1.209830517966135610e-01,1.282871336653949867e-01,1.338385488150765357e-01,1.380438554172468690e-01,1.402154458088661904e-01,1.406510116857058734e-01,1.396448107272875439e-01,1.366768322131549362e-01,1.321234743382795618e-01,1.262286996507121783e-01,1.186946752018248480e-01,1.098229522450856060e-01,9.990899387645565954e-02,8.880165313937034288e-02,7.672504173485447665e-02,6.393095973849072244e-02,5.056698685897827866e-02,3.666460117981821393e-02,2.229411209123007345e-02,8.000319906179982274e-03,-6.311058429466634596e-03,-2.084011242232728170e-02,-3.495881519859736497e-02,-4.845448669293081490e-02,-6.169985818161835556e-02,-7.465575114690438385e-02,-8.660624460622419474e-02,-9.773310190810517717e-02,-1.082563663795293452e-01,-1.180948964089727077e-01,-1.268496405252264869e-01,-1.346822350451158112e-01,-1.416458524939563091e-01,-1.476734130758708130e-01,-1.528826912447165398e-01,-1.572433548683686844e-01,-1.606350028817651876e-01,-1.630944014552797028e-01,-1.648140397008259206e-01,-1.659571396975295099e-01,-1.664521461050908480e-01,-1.662199208625746993e-01,-1.652220744559781962e-01,-1.638200986046852159e-01,-1.620254034909316410e-01,-1.599596768639231781e-01,-1.574843011836746798e-01,-1.546564458619861249e-01,-1.516461503437410430e-01,-1.484693997424891831e-01,-1.451932931411187289e-01,-1.418624413871154011e-01,-1.385629955433553828e-01,-1.352969621636765374e-01,-1.321923219035132657e-01,-1.292744271865412520e-01,-1.264799409749064185e-01,-1.238051034521224364e-01,-1.213338821196469908e-01,-1.191184995882443864e-01,-1.171828319471800162e-01,-1.155353120150143797e-01,-1.141843853440816792e-01,-1.131691172300293702e-01,-1.124997163296686531e-01,-1.121618361966790489e-01,-1.121618361966790073e-01,-1.124997163296686808e-01,-1.131691172300295783e-01,-1.141843853440813322e-01,-1.155353120150144214e-01,-1.171828319471801688e-01,-1.191184995882443587e-01,-1.213338821196471295e-01,-1.238051034521225058e-01,-1.264799409749064740e-01,-1.292744271865410854e-01,-1.321923219035134323e-01,-1.352969621636767594e-01,-1.385629955433551885e-01,-1.418624413871155399e-01,-1.451932931411185623e-01,-1.484693997424892109e-01,-1.516461503437409042e-01,-1.546564458619860138e-01,-1.574843011836745410e-01,-1.599596768639230115e-01,-1.620254034909316965e-01,-1.638200986046853824e-01,-1.652220744559781684e-01,-1.662199208625746993e-01,-1.664521461050911810e-01,-1.659571396975296209e-01,-1.648140397008258651e-01,-1.630944014552799248e-01,-1.606350028817651876e-01,-1.572433548683688509e-01,-1.528826912447166786e-01,-1.476734130758707020e-01,-1.416458524939564201e-01,-1.346822350451156169e-01,-1.268496405252264869e-01,-1.180948964089725828e-01,-1.082563663795293174e-01,-9.773310190810527431e-02,-8.660624460622423637e-02,-7.465575114690425895e-02,-6.169985818161778657e-02,-4.845448669293078020e-02
4.056636310027019431e-03,2.010242150934526961e-02,3.568243036396240991e-02,5.100378999787585216e-02,6.557362848721563775e-02,7.906210528023908946e-02,9.186306770292004820e-02,1.032384437422462359e-01,1.131462080926901315e-01,1.219897623296625488e-01,1.289616163809616245e-01,1.342924955849989221e-01,1.382977537319446670e-01,1.402952440787688104e-01,1.406315566449731491e-01,1.395691214703701222e-01,1.366313291004555286e-01,1.321191585883825237e-01,1.263395702538926413e-01,1.190028637895591268e-01,1.103355442687307397e-01,1.006724228591078379e-01,8.992439121288543780e-02,7.819278278604611943e-02,6.570541288759773613e-02,5.278360571885599289e-02,3.931019696242155775e-02,2.527977190561154705e-02,1.132279911719935583e-02,-2.477444400825717322e-03,-1.660286563910094715e-02,-3.051924765490766564e-02,-4.377363143785991534e-02,-5.661031867383593125e-02,-6.932811253054681211e-02,-8.129303294078808750e-02,-9.235555760100140621e-02,-1.028015729506375903e-01,-1.125934378435726052e-01,-1.215510274923971984e-01,-1.296028063797658447e-01,-1.368531888944809483e-01,-1.432037448209358410e-01,-1.486566770374807556e-01,-1.534403436901036755e-01,-1.574979582636529540e-01,-1.606763757655371994e-01,-1.629459283357451715e-01,-1.645964330398183573e-01,-1.657419229090414392e-01,-1.663942080747620733e-01,-1.663705885021432018e-01,-1.657924532081138658e-01,-1.647603231706100124e-01,-1.633796536921780784e-01,-1.617798851740982757e-01,-1.599200143670422847e-01,-1.578217125701169843e-01,-1.556070210398349807e-01,-1.532234892739497700e-01,-1.507525634127282188e-01,-1.482706943070927763e-01,-1.458241009281584233e-01,-1.434552291846827865e-01,-1.411733695389231213e-01,-1.390678657706024834e-01,-1.371222150392384376e-01,-1.354016120931616773e-01,-1.338863653944972754e-01,-1.325841891813195061e-01,-1.315134724622495366e-01,-1.306948153105223220e-01,-1.301375629394937450e-01,-1.298550209833610747e-01,-1.298550209833612967e-01,-1.301375629394939670e-01,-1.306948153105222943e-01,-1.315134724622495643e-01,-1.325841891813196449e-01,-1.338863653944970256e-01,-1.354016120931615108e-01,-1.371222150392384376e-01,-1.390678657706026777e-01,-1.411733695389232324e-01,-1.434552291846828143e-01,-1.458241009281585343e-01,-1.482706943070929706e-01,-1.507525634127281078e-01,-1.532234892739499088e-01,-1.556070210398353415e-01,-1.578217125701172063e-01,-1.599200143670423957e-01,-1.617798851740979427e-01,-1.633796536921783282e-01,-1.647603231706098459e-01,-1.657924532081137547e-01,-1.663705885021432018e-01,-1.663942080747621288e-01,-1.657419229090414670e-01,-1.645964330398187181e-01,-1.629459283357451993e-01,-1.606763757655371716e-01,-1.574979582636526765e-01,-1.534403436901037587e-01,-1.486566770374806723e-01,-1.432037448209360075e-01,-1.368531888944808372e-01,-1.296028063797660945e-01,-1.215510274923971706e-01,-1.125934378435726885e-01,-1.028015729506374237e-01,-9.235555760100125355e-02,-8.129303294078783770e-02,-6.932811253054672884e-02,-5.661031867383581329e-02,-4.377363143785956839e-02,-3.051924765490764829e-02
-8.546909692396704311e-03,7.361253035261907003e-03,2.315771695611210448e-02,3.848168853594611388e-02,5.356825312167082936e-02,6.777627101054847780e-02,8.097719441498110737e-02,9.349253561785057787e-02,1.044959576737235357e-01,1.141472213105481914e-01,1.227243203360788293e-01,1.294287174807411123e-01,1.345916134262748476e-01,1.384325970823065688e-01,1.403379417463062884e-01,1.406278738363543890e-01,1.395642835565880091e-01,1.367054286673013153e-01,1.322956348168292384e-01,1.266833034169529693e-01,1.195970701430319888e-01,1.111887200256113650e-01,1.017995204776019624e-01,9.145724386869644174e-02,8.012152441623786314e-02,6.798354044395259199e-02,5.548102371793824095e-02,4.250225879703876247e-02,2.890212206826736629e-02,1.527906164434473558e-02,1.888842302071484748e-03,-1.172859208862831945e-02,-2.539179080901134491e-02,-3.844915626211171944e-02,-5.097503891874315129e-02,-6.329478957511000536e-02,-7.522101502175480847e-02,-8.628853537769973214e-02,-9.666926115755374027e-02,-1.064165934080460729e-01,-1.154163748676330647e-01,-1.236942547246683843e-01,-1.312401753217716793e-01,-1.379503437318577996e-01,-1.437436445651112948e-01,-1.487942517802411380e-01,-1.532643750342112254e-01,-1.571158715996801847e-01,-1.602025190771768082e-01,-1.624124833226714970e-01,-1.640922890070120599e-01,-1.652953569674957546e-01,-1.661352439790740598e-01,-1.664468518713417000e-01,-1.662414890665540601e-01,-1.656866161261166814e-01,-1.648391171020210932e-01,-1.637371859595694035e-01,-1.624467604348839578e-01,-1.609987757687765253e-01,-1.593932470346577923e-01,-1.577925807907970546e-01,-1.561903116347351239e-01,-1.545432977193796631e-01,-1.528802991397128219e-01,-1.512935986614473427e-01,-1.498131538158591902e-01,-1.484742841695645688e-01,-1.472485895052845772e-01,-1.461929886061260064e-01,-1.453579822348328998e-01,-1.447195607326836886e-01,-1.443011397127337281e-01,-1.440897164089414983e-01,-1.440897164089417481e-01,-1.443011397127341722e-01,-1.447195607326836886e-01,-1.453579822348330386e-01,-1.461929886061262562e-01,-1.472485895052848270e-01,-1.484742841695646798e-01,-1.498131538158592180e-01,-1.512935986614476203e-01,-1.528802991397126276e-01,-1.545432977193796076e-01,-1.561903116347351239e-01,-1.577925807907972489e-01,-1.593932470346577090e-01,-1.609987757687768861e-01,-1.624467604348839023e-01,-1.637371859595697643e-01,-1.648391171020213153e-01,-1.656866161261163484e-01,-1.662414890665542544e-01,-1.664468518713415057e-01,-1.661352439790743374e-01,-1.652953569674960599e-01,-1.640922890070121432e-01,-1.624124833226717468e-01,-1.602025190771766694e-01,-1.571158715996800737e-01,-1.532643750342111977e-01,-1.487942517802412767e-01,-1.437436445651115169e-01,-1.379503437318574943e-01,-1.312401753217714573e-01,-1.236942547246679541e-01,-1.154163748676327872e-01,-1.064165934080460729e-01,-9.666926115755371252e-02,-8.628853537769988480e-02,-7.522101502175483623e-02,-6.329478957510985271e-02,-5.097503891874317211e-02,-3.844915626211178189e-02,-2.539179080901101532e-02,-1.172859208862824659e-02
