1.389000000000000012e+00,1.389000000000000012e+00,1.387999999999999901e+00,1.387999999999999901e+00,1.387999999999999901e+00,1.387999999999999901e+00,1.387999999999999901e+00,1.387999999999999901e+00,1.387999999999999901e+00,1.387999999999999901e+00,1.387000000000000011e+00,1.387000000000000011e+00,1.387000000000000011e+00,1.387000000000000011e+00,1.387000000000000011e+00,1.387000000000000011e+00,1.387000000000000011e+00,1.385999999999999899e+00,1.385999999999999899e+00,1.385999999999999899e+00,1.385000000000000009e+00,1.385000000000000009e+00,1.385000000000000009e+00,1.383999999999999897e+00,1.383999999999999897e+00,1.383999999999999897e+00,1.383999999999999897e+00,1.383000000000000007e+00,1.383000000000000007e+00,1.383000000000000007e+00,1.383000000000000007e+00,1.383000000000000007e+00,1.383000000000000007e+00,1.383000000000000007e+00,1.383000000000000007e+00,1.383000000000000007e+00,1.383000000000000007e+00,1.383000000000000007e+00,1.383000000000000007e+00,1.383000000000000007e+00,1.383000000000000007e+00,1.383000000000000007e+00,1.383000000000000007e+00,1.383000000000000007e+00,1.381999999999999895e+00,1.381999999999999895e+00,1.381000000000000005e+00,1.381000000000000005e+00,1.379999999999999893e+00,1.379999999999999893e+00,1.379000000000000004e+00,1.377999999999999892e+00,1.377999999999999892e+00,1.377000000000000002e+00,1.377000000000000002e+00,1.377000000000000002e+00,1.375999999999999890e+00,1.375999999999999890e+00,1.377000000000000002e+00,1.377000000000000002e+00,1.377000000000000002e+00,1.377000000000000002e+00,1.377999999999999892e+00,1.377999999999999892e+00,1.379000000000000004e+00,1.379000000000000004e+00,1.379999999999999893e+00,1.379999999999999893e+00,1.379999999999999893e+00,1.381000000000000005e+00,1.381000000000000005e+00,1.379999999999999893e+00,1.379999999999999893e+00,1.379000000000000004e+00,1.377999999999999892e+00,1.375999999999999890e+00,1.374000000000000110e+00,1.372999999999999998e+00,1.370999999999999996e+00,1.370999999999999996e+00,1.370999999999999996e+00,1.370999999999999996e+00,1.372000000000000108e+00,1.372000000000000108e+00,1.372999999999999998e+00,1.372999999999999998e+00,1.372999999999999998e+00,1.374000000000000110e+00,1.375000000000000000e+00,1.375999999999999890e+00,1.377000000000000002e+00,1.379000000000000004e+00,1.379999999999999893e+00,1.381000000000000005e+00,1.379999999999999893e+00,1.379999999999999893e+00,1.377999999999999892e+00,1.377000000000000002e+00,1.375000000000000000e+00,1.372999999999999998e+00,1.372000000000000108e+00,1.370999999999999996e+00,1.370000000000000107e+00,1.368999999999999995e+00,1.370000000000000107e+00,1.370000000000000107e+00,1.370999999999999996e+00,1.370999999999999996e+00,1.372000000000000108e+00,1.372999999999999998e+00,1.374000000000000110e+00,1.375000000000000000e+00,1.375999999999999890e+00,1.377999999999999892e+00,1.379000000000000004e+00,1.381000000000000005e+00,1.381999999999999895e+00,1.381999999999999895e+00,1.381000000000000005e+00
1.389000000000000012e+00,1.389000000000000012e+00,1.387999999999999901e+00,1.387999999999999901e+00,1.387999999999999901e+00,1.387999999999999901e+00,1.387999999999999901e+00,1.387999999999999901e+00,1.387999999999999901e+00,1.387999999999999901e+00,1.387000000000000011e+00,1.387000000000000011e+00,1.387000000000000011e+00,1.387000000000000011e+00,1.387000000000000011e+00,1.387000000000000011e+00,1.387000000000000011e+00,1.385999999999999899e+00,1.385999999999999899e+00,1.385999999999999899e+00,1.385000000000000009e+00,1.385000000000000009e+00,1.385000000000000009e+00,1.383999999999999897e+00,1.383999999999999897e+00,1.383999999999999897e+00,1.383999999999999897e+00,1.383000000000000007e+00,1.383000000000000007e+00,1.383000000000000007e+00,1.383000000000000007e+00,1.383000000000000007e+00,1.381999999999999895e+00,1.381999999999999895e+00,1.383000000000000007e+00,1.383000000000000007e+00,1.383000000000000007e+00,1.383000000000000007e+00,1.383000000000000007e+00,1.383000000000000007e+00,1.383000000000000007e+00,1.383000000000000007e+00,1.383000000000000007e+00,1.381999999999999895e+00,1.381999999999999895e+00,1.381999999999999895e+00,1.381000000000000005e+00,1.381000000000000005e+00,1.379999999999999893e+00,1.379999999999999893e+00,1.379000000000000004e+00,1.377999999999999892e+00,1.377999999999999892e+00,1.377000000000000002e+00,1.377000000000000002e+00,1.377000000000000002e+00,1.375999999999999890e+00,1.375999999999999890e+00,1.375999999999999890e+00,1.377000000000000002e+00,1.377000000000000002e+00,1.377000000000000002e+00,1.377999999999999892e+00,1.377999999999999892e+00,1.379000000000000004e+00,1.379000000000000004e+00,1.379000000000000004e+00,1.379999999999999893e+00,1.379999999999999893e+00,1.381000000000000005e+00,1.381000000000000005e+00,1.379999999999999893e+00,1.379999999999999893e+00,1.379000000000000004e+00,1.377000000000000002e+00,1.375999999999999890e+00,1.374000000000000110e+00,1.372999999999999998e+00,1.370999999999999996e+00,1.370999999999999996e+00,1.370999999999999996e+00,1.370999999999999996e+00,1.370999999999999996e+00,1.372000000000000108e+00,1.372999999999999998e+00,1.372999999999999998e+00,1.372999999999999998e+00,1.374000000000000110e+00,1.374000000000000110e+00,1.375999999999999890e+00,1.377000000000000002e+00,1.379000000000000004e+00,1.379999999999999893e+00,1.381000000000000005e+00,1.379999999999999893e+00,1.379999999999999893e+00,1.377999999999999892e+00,1.375999999999999890e+00,1.375000000000000000e+00,1.372999999999999998e+00,1.370999999999999996e+00,1.370000000000000107e+00,1.370000000000000107e+00,1.368999999999999995e+00,1.368999999999999995e+00,1.370000000000000107e+00,1.370000000000000107e+00,1.370999999999999996e+00,1.372000000000000108e+00,1.372999999999999998e+00,1.374000000000000110e+00,1.375000000000000000e+00,1.375999999999999890e+00,1.377999999999999892e+00,1.379000000000000004e+00,1.381000000000000005e+00,1.381999999999999895e+00,1.381999999999999895e+00,1.381000000000000005e+00
1.389000000000000012e+00,1.389000000000000012e+00,1.387999999999999901e+00,1.387999999999999901e+00,1.387999999999999901e+00,1.387999999999999901e+00,1.387999999999999901e+00,1.387999999999999901e+00,1.387999999999999901e+00,1.387000000000000011e+00,1.387000000000000011e+00,1.387000000000000011e+00,1.387000000000000011e+00,1.387000000000000011e+00,1.387000000000000011e+00,1.387000000000000011e+00,1.387000000000000011e+00,1.385999999999999899e+00,1.385999999999999899e+00,1.385999999999999899e+00,1.385000000000000009e+00,1.385000000000000009e+00,1.385000000000000009e+00,1.383999999999999897e+00,1.383999999999999897e+00,1.383999999999999897e+00,1.383000000000000007e+00,1.383000000000000007e+00,1.383000000000000007e+00,1.383000000000000007e+00,1.383000000000000007e+00,1.381999999999999895e+00,1.381999999999999895e+00,1.381999999999999895e+00,1.381999999999999895e+00,1.381999999999999895e+00,1.383000000000000007e+00,1.383000000000000007e+00,1.383000000000000007e+00,1.383000000000000007e+00,1.383000000000000007e+00,1.383000000000000007e+00,1.383000000000000007e+00,1.381999999999999895e+00,1.381999999999999895e+00,1.381999999999999895e+00,1.381000000000000005e+00,1.381000000000000005e+00,1.379999999999999893e+00,1.379999999999999893e+00,1.379000000000000004e+00,1.377999999999999892e+00,1.377999999999999892e+00,1.377000000000000002e+00,1.377000000000000002e+00,1.375999999999999890e+00,1.375999999999999890e+00,1.375999999999999890e+00,1.375999999999999890e+00,1.375999999999999890e+00,1.377000000000000002e+00,1.377000000000000002e+00,1.377000000000000002e+00,1.377999999999999892e+00,1.377999999999999892e+00,1.379000000000000004e+00,1.379000000000000004e+00,1.379999999999999893e+00,1.379999999999999893e+00,1.379999999999999893e+00,1.379999999999999893e+00,1.379999999999999893e+00,1.379999999999999893e+00,1.379000000000000004e+00,1.377000000000000002e+00,1.375999999999999890e+00,1.374000000000000110e+00,1.372000000000000108e+00,1.370999999999999996e+00,1.370000000000000107e+00,1.370000000000000107e+00,1.370999999999999996e+00,1.370999999999999996e+00,1.372000000000000108e+00,1.372000000000000108e+00,1.372999999999999998e+00,1.372999999999999998e+00,1.372999999999999998e+00,1.374000000000000110e+00,1.375999999999999890e+00,1.377000000000000002e+00,1.379000000000000004e+00,1.379999999999999893e+00,1.381000000000000005e+00,1.379999999999999893e+00,1.379999999999999893e+00,1.377999999999999892e+00,1.375999999999999890e+00,1.375000000000000000e+00,1.372999999999999998e+00,1.370999999999999996e+00,1.370000000000000107e+00,1.368999999999999995e+00,1.368999999999999995e+00,1.368999999999999995e+00,1.370000000000000107e+00,1.370000000000000107e+00,1.370999999999999996e+00,1.372000000000000108e+00,1.372000000000000108e+00,1.372999999999999998e+00,1.375000000000000000e+00,1.375999999999999890e+00,1.377999999999999892e+00,1.379000000000000004e+00,1.381000000000000005e+00,1.381999999999999895e+00,1.381999999999999895e+00,1.381000000000000005e+00
1.389000000000000012e+00,1.389000000000000012e+00,1.387999999999999901e+00,1.387999999999999901e+00,1.387999999999999901e+00,1.387999999999999901e+00,1.387999999999999901e+00,1.387999999999999901e+00,1.387999999999999901e+00,1.387000000000000011e+00,1.387000000000000011e+00,1.387000000000000011e+00,1.387000000000000011e+00,1.387000000000000011e+00,1.387000000000000011e+00,1.387000000000000011e+00,1.385999999999999899e+00,1.385999999999999899e+00,1.385999999999999899e+00,1.385999999999999899e+00,1.385000000000000009e+00,1.385000000000000009e+00,1.385000000000000009e+00,1.383999999999999897e+00,1.383999999999999897e+00,1.383999999999999897e+00,1.383000000000000007e+00,1.383000000000000007e+00,1.383000000000000007e+00,1.383000000000000007e+00,1.381999999999999895e+00,1.381999999999999895e+00,1.381999999999999895e+00,1.381999999999999895e+00,1.381999999999999895e+00,1.381999999999999895e+00,1.381999999999999895e+00,1.381999999999999895e+00,1.383000000000000007e+00,1.383000000000000007e+00,1.383000000000000007e+00,1.383000000000000007e+00,1.381999999999999895e+00,1.381999999999999895e+00,1.381999999999999895e+00,1.381999999999999895e+00,1.381000000000000005e+00,1.381000000000000005e+00,1.379999999999999893e+00,1.379000000000000004e+00,1.379000000000000004e+00,1.377999999999999892e+00,1.377999999999999892e+00,1.377000000000000002e+00,1.377000000000000002e+00,1.375999999999999890e+00,1.375999999999999890e+00,1.375999999999999890e+00,1.375999999999999890e+00,1.375999999999999890e+00,1.375999999999999890e+00,1.377000000000000002e+00,1.377000000000000002e+00,1.377999999999999892e+00,1.377999999999999892e+00,1.379000000000000004e+00,1.379000000000000004e+00,1.379999999999999893e+00,1.379999999999999893e+00,1.379999999999999893e+00,1.379999999999999893e+00,1.379999999999999893e+00,1.379999999999999893e+00,1.379000000000000004e+00,1.377000000000000002e+00,1.375999999999999890e+00,1.374000000000000110e+00,1.372000000000000108e+00,1.370999999999999996e+00,1.370000000000000107e+00,1.370000000000000107e+00,1.370000000000000107e+00,1.370999999999999996e+00,1.372000000000000108e+00,1.372000000000000108e+00,1.372000000000000108e+00,1.372999999999999998e+00,1.372999999999999998e+00,1.374000000000000110e+00,1.375000000000000000e+00,1.377000000000000002e+00,1.379000000000000004e+00,1.379999999999999893e+00,1.381000000000000005e+00,1.379999999999999893e+00,1.379999999999999893e+00,1.377999999999999892e+00,1.375999999999999890e+00,1.374000000000000110e+00,1.372999999999999998e+00,1.370999999999999996e+00,1.370000000000000107e+00,1.368999999999999995e+00,1.368999999999999995e+00,1.368999999999999995e+00,1.368999999999999995e+00,1.370000000000000107e+00,1.370999999999999996e+00,1.370999999999999996e+00,1.372000000000000108e+00,1.372999999999999998e+00,1.374000000000000110e+00,1.375999999999999890e+00,1.377999999999999892e+00,1.379000000000000004e+00,1.381000000000000005e+00,1.381999999999999895e+00,1.381999999999999895e+00,1.381000000000000005e+00
1.389000000000000012e+00,1.389000000000000012e+00,1.387999999999999901e+00,1.387999999999999901e+00,1.387999999999999901e+00,1.387999999999999901e+00,1.387999999999999901e+00,1.387999999999999901e+00,1.387999999999999901e+00,1.387000000000000011e+00,1.387000000000000011e+00,1.387000000000000011e+00,1.387000000000000011e+00,1.387000000000000011e+00,1.387000000000000011e+00,1.387000000000000011e+00,1.385999999999999899e+00,1.385999999999999899e+00,1.385999999999999899e+00,1.385999999999999899e+00,1.385000000000000009e+00,1.385000000000000009e+00,1.385000000000000009e+00,1.383999999999999897e+00,1.383999999999999897e+00,1.383999999999999897e+00,1.383000000000000007e+00,1.383000000000000007e+00,1.383000000000000007e+00,1.383000000000000007e+00,1.381999999999999895e+00,1.381999999999999895e+00,1.381999999999999895e+00,1.381999999999999895e+00,1.381999999999999895e+00,1.381999999999999895e+00,1.381999999999999895e+00,1.381999999999999895e+00,1.381999999999999895e+00,1.381999999999999895e+00,1.381999999999999895e+00,1.381999999999999895e+00,1.381999999999999895e+00,1.381999999999999895e+00,1.381999999999999895e+00,1.381999999999999895e+00,1.381000000000000005e+00,1.381000000000000005e+00,1.379999999999999893e+00,1.379000000000000004e+00,1.379000000000000004e+00,1.377999999999999892e+00,1.377999999999999892e+00,1.377000000000000002e+00,1.377000000000000002e+00,1.375999999999999890e+00,1.375999999999999890e+00,1.375999999999999890e+00,1.375999999999999890e+00,1.375999999999999890e+00,1.375999999999999890e+00,1.377000000000000002e+00,1.377000000000000002e+00,1.377000000000000002e+00,1.377999999999999892e+00,1.377999999999999892e+00,1.379000000000000004e+00,1.379000000000000004e+00,1.379999999999999893e+00,1.379999999999999893e+00,1.379999999999999893e+00,1.379999999999999893e+00,1.379000000000000004e+00,1.379000000000000004e+00,1.377000000000000002e+00,1.375999999999999890e+00,1.374000000000000110e+00,1.372000000000000108e+00,1.370999999999999996e+00,1.370000000000000107e+00,1.370000000000000107e+00,1.370000000000000107e+00,1.370999999999999996e+00,1.370999999999999996e+00,1.372000000000000108e+00,1.372000000000000108e+00,1.372999999999999998e+00,1.372999999999999998e+00,1.374000000000000110e+00,1.375000000000000000e+00,1.377000000000000002e+00,1.377999999999999892e+00,1.379999999999999893e+00,1.379999999999999893e+00,1.379999999999999893e+00,1.379999999999999893e+00,1.377999999999999892e+00,1.375999999999999890e+00,1.374000000000000110e+00,1.372000000000000108e+00,1.370999999999999996e+00,1.370000000000000107e+00,1.368999999999999995e+00,1.368999999999999995e+00,1.368999999999999995e+00,1.368999999999999995e+00,1.370000000000000107e+00,1.370000000000000107e+00,1.370999999999999996e+00,1.372000000000000108e+00,1.372999999999999998e+00,1.374000000000000110e+00,1.375999999999999890e+00,1.377999999999999892e+00,1.379000000000000004e+00,1.381000000000000005e+00,1.381999999999999895e+00,1.381999999999999895e+00,1.381000000000000005e+00
1.389000000000000012e+00,1.389000000000000012e+00,1.387999999999999901e+00,1.387999999999999901e+00,1.387999999999999901e+00,1.387999999999999901e+00,1.387999999999999901e+00,1.387999999999999901e+00,1.387000000000000011e+00,1.387000000000000011e+00,1.387000000000000011e+00,1.387000000000000011e+00,1.387000000000000011e+00,1.387000000000000011e+00,1.387000000000000011e+00,1.387000000000000011e+00,1.385999999999999899e+00,1.385999999999999899e+00,1.385999999999999899e+00,1.385999999999999899e+00,1.385000000000000009e+00,1.385000000000000009e+00,1.385000000000000009e+00,1.383999999999999897e+00,1.383999999999999897e+00,1.383999999999999897e+00,1.383000000000000007e+00,1.383000000000000007e+00,1.383000000000000007e+00,1.383000000000000007e+00,1.381999999999999895e+00,1.381999999999999895e+00,1.381999999999999895e+00,1.381999999999999895e+00,1.381999999999999895e+00,1.381999999999999895e+00,1.381999999999999895e+00,1.381999999999999895e+00,1.381999999999999895e+00,1.381999999999999895e+00,1.381999999999999895e+00,1.381999999999999895e+00,1.381999999999999895e+00,1.381999999999999895e+00,1.381999999999999895e+00,1.381000000000000005e+00,1.381000000000000005e+00,1.381000000000000005e+00,1.379999999999999893e+00,1.379000000000000004e+00,1.379000000000000004e+00,1.377999999999999892e+00,1.377000000000000002e+00,1.377000000000000002e+00,1.375999999999999890e+00,1.375999999999999890e+00,1.375999999999999890e+00,1.375999999999999890e+00,1.375999999999999890e+00,1.375999999999999890e+00,1.375999999999999890e+00,1.375999999999999890e+00,1.377000000000000002e+00,1.377000000000000002e+00,1.377999999999999892e+00,1.377999999999999892e+00,1.379000000000000004e+00,1.379000000000000004e+00,1.379999999999999893e+00,1.379999999999999893e+00,1.379999999999999893e+00,1.379999999999999893e+00,1.379000000000000004e+00,1.377999999999999892e+00,1.377000000000000002e+00,1.375999999999999890e+00,1.374000000000000110e+00,1.372000000000000108e+00,1.370999999999999996e+00,1.370000000000000107e+00,1.370000000000000107e+00,1.370000000000000107e+00,1.370999999999999996e+00,1.370999999999999996e+00,1.372000000000000108e+00,1.372000000000000108e+00,1.372000000000000108e+00,1.372999999999999998e+00,1.374000000000000110e+00,1.375000000000000000e+00,1.377000000000000002e+00,1.377999999999999892e+00,1.379999999999999893e+00,1.379999999999999893e+00,1.379999999999999893e+00,1.379999999999999893e+00,1.377999999999999892e+00,1.375999999999999890e+00,1.374000000000000110e+00,1.372000000000000108e+00,1.370000000000000107e+00,1.368999999999999995e+00,1.368999999999999995e+00,1.368000000000000105e+00,1.368999999999999995e+00,1.368999999999999995e+00,1.370000000000000107e+00,1.370000000000000107e+00,1.370999999999999996e+00,1.372000000000000108e+00,1.372999999999999998e+00,1.374000000000000110e+00,1.375999999999999890e+00,1.377999999999999892e+00,1.379000000000000004e+00,1.381000000000000005e+00,1.381999999999999895e+00,1.381999999999999895e+00,1.381000000000000005e+00
1.389000000000000012e+00,1.389000000000000012e+00,1.387999999999999901e+00,1.387999999999999901e+00,1.387999999999999901e+00,1.387999999999999901e+00,1.387999999999999901e+00,1.387999999999999901e+00,1.387000000000000011e+00,1.387000000000000011e+00,1.387000000000000011e+00,1.387000000000000011e+00,1.387000000000000011e+00,1.387000000000000011e+00,1.387000000000000011e+00,1.387000000000000011e+00,1.385999999999999899e+00,1.385999999999999899e+00,1.385999999999999899e+00,1.385999999999999899e+00,1.385000000000000009e+00,1.385000000000000009e+00,1.385000000000000009e+00,1.383999999999999897e+00,1.383999999999999897e+00,1.383999999999999897e+00,1.383000000000000007e+00,1.383000000000000007e+00,1.383000000000000007e+00,1.381999999999999895e+00,1.381999999999999895e+00,1.381999999999999895e+00,1.381999999999999895e+00,1.381999999999999895e+00,1.381999999999999895e+00,1.381999999999999895e+00,1.381999999999999895e+00,1.381999999999999895e+00,1.381999999999999895e+00,1.381999999999999895e+00,1.381999999999999895e+00,1.381999999999999895e+00,1.381999999999999895e+00,1.381999999999999895e+00,1.381999999999999895e+00,1.381000000000000005e+00,1.381000000000000005e+00,1.379999999999999893e+00,1.379999999999999893e+00,1.379000000000000004e+00,1.379000000000000004e+00,1.377999999999999892e+00,1.377000000000000002e+00,1.377000000000000002e+00,1.375999999999999890e+00,1.375999999999999890e+00,1.375999999999999890e+00,1.375999999999999890e+00,1.375000000000000000e+00,1.375999999999999890e+00,1.375999999999999890e+00,1.375999999999999890e+00,1.377000000000000002e+00,1.377000000000000002e+00,1.377999999999999892e+00,1.377999999999999892e+00,1.379000000000000004e+00,1.379000000000000004e+00,1.379999999999999893e+00,1.379999999999999893e+00,1.379999999999999893e+00,1.379999999999999893e+00,1.379000000000000004e+00,1.377999999999999892e+00,1.377000000000000002e+00,1.375999999999999890e+00,1.374000000000000110e+00,1.372000000000000108e+00,1.370999999999999996e+00,1.370000000000000107e+00,1.368999999999999995e+00,1.370000000000000107e+00,1.370000000000000107e+00,1.370999999999999996e+00,1.372000000000000108e+00,1.372000000000000108e+00,1.372000000000000108e+00,1.372999999999999998e+00,1.374000000000000110e+00,1.375000000000000000e+00,1.375999999999999890e+00,1.377999999999999892e+00,1.379999999999999893e+00,1.379999999999999893e+00,1.379999999999999893e+00,1.379999999999999893e+00,1.377999999999999892e+00,1.375999999999999890e+00,1.374000000000000110e+00,1.372000000000000108e+00,1.370000000000000107e+00,1.368999999999999995e+00,1.368000000000000105e+00,1.368000000000000105e+00,1.368999999999999995e+00,1.368999999999999995e+00,1.370000000000000107e+00,1.370000000000000107e+00,1.370999999999999996e+00,1.370999999999999996e+00,1.372000000000000108e+00,1.374000000000000110e+00,1.375999999999999890e+00,1.377000000000000002e+00,1.379000000000000004e+00,1.381000000000000005e+00,1.381999999999999895e+00,1.381999999999999895e+00,1.381000000000000005e+00
1.389000000000000012e+00,1.389000000000000012e+00,1.387999999999999901e+00,1.387999999999999901e+00,1.387999999999999901e+00,1.387999999999999901e+00,1.387999999999999901e+00,1.387999999999999901e+00,1.387000000000000011e+00,1.387000000000000011e+00,1.387000000000000011e+00,1.387000000000000011e+00,1.387000000000000011e+00,1.387000000000000011e+00,1.387000000000000011e+00,1.385999999999999899e+00,1.385999999999999899e+00,1.385999999999999899e+00,1.385999999999999899e+00,1.385999999999999899e+00,1.385000000000000009e+00,1.385000000000000009e+00,1.385000000000000009e+00,1.383999999999999897e+00,1.383999999999999897e+00,1.383999999999999897e+00,1.383000000000000007e+00,1.383000000000000007e+00,1.383000000000000007e+00,1.381999999999999895e+00,1.381999999999999895e+00,1.381999999999999895e+00,1.381999999999999895e+00,1.381999999999999895e+00,1.381999999999999895e+00,1.381999999999999895e+00,1.381999999999999895e+00,1.381999999999999895e+00,1.381999999999999895e+00,1.381999999999999895e+00,1.381999999999999895e+00,1.381999999999999895e+00,1.381999999999999895e+00,1.381999999999999895e+00,1.381999999999999895e+00,1.381000000000000005e+00,1.381000000000000005e+00,1.379999999999999893e+00,1.379999999999999893e+00,1.379000000000000004e+00,1.379000000000000004e+00,1.377999999999999892e+00,1.377000000000000002e+00,1.377000000000000002e+00,1.375999999999999890e+00,1.375999999999999890e+00,1.375999999999999890e+00,1.375000000000000000e+00,1.375000000000000000e+00,1.375000000000000000e+00,1.375999999999999890e+00,1.375999999999999890e+00,1.375999999999999890e+00,1.377000000000000002e+00,1.377000000000000002e+00,1.377999999999999892e+00,1.379000000000000004e+00,1.379000000000000004e+00,1.379000000000000004e+00,1.379999999999999893e+00,1.379999999999999893e+00,1.379999999999999893e+00,1.379000000000000004e+00,1.377999999999999892e+00,1.377000000000000002e+00,1.375999999999999890e+00,1.374000000000000110e+00,1.372000000000000108e+00,1.370999999999999996e+00,1.370000000000000107e+00,1.368999999999999995e+00,1.370000000000000107e+00,1.370000000000000107e+00,1.370999999999999996e+00,1.370999999999999996e+00,1.372000000000000108e+00,1.372000000000000108e+00,1.372999999999999998e+00,1.372999999999999998e+00,1.375000000000000000e+00,1.375999999999999890e+00,1.377999999999999892e+00,1.379999999999999893e+00,1.379999999999999893e+00,1.379999999999999893e+00,1.379999999999999893e+00,1.377999999999999892e+00,1.375999999999999890e+00,1.374000000000000110e+00,1.372000000000000108e+00,1.370000000000000107e+00,1.368999999999999995e+00,1.368000000000000105e+00,1.368000000000000105e+00,1.368000000000000105e+00,1.368999999999999995e+00,1.368999999999999995e+00,1.370000000000000107e+00,1.370000000000000107e+00,1.370999999999999996e+00,1.372000000000000108e+00,1.374000000000000110e+00,1.375000000000000000e+00,1.377000000000000002e+00,1.379000000000000004e+00,1.381000000000000005e+00,1.381999999999999895e+00,1.381999999999999895e+00,1.381000000000000005e+00
1.389000000000000012e+00,1.389000000000000012e+00,1.387999999999999901e+00,1.387999999999999901e+00,1.387999999999999901e+00,1.387999999999999901e+00,1.387999999999999901e+00,1.387000000000000011e+00,1.387000000000000011e+00,1.387000000000000011e+00,1.387000000000000011e+00,1.387000000000000011e+00,1.387000000000000011e+00,1.387000000000000011e+00,1.387000000000000011e+00,1.385999999999999899e+00,1.385999999999999899e+00,1.385999999999999899e+00,1.385999999999999899e+00,1.385999999999999899e+00,1.385000000000000009e+00,1.385000000000000009e+00,1.385000000000000009e+00,1.383999999999999897e+00,1.383999999999999897e+00,1.383999999999999897e+00,1.383000000000000007e+00,1.383000000000000007e+00,1.383000000000000007e+00,1.381999999999999895e+00,1.381999999999999895e+00,1.381999999999999895e+00,1.381999999999999895e+00,1.381999999999999895e+00,1.381999999999999895e+00,1.381999999999999895e+00,1.381999999999999895e+00,1.381999999999999895e+00,1.381999999999999895e+00,1.381999999999999895e+00,1.381999999999999895e+00,1.381999999999999895e+00,1.381999999999999895e+00,1.381999999999999895e+00,1.381000000000000005e+00,1.381000000000000005e+00,1.381000000000000005e+00,1.379999999999999893e+00,1.379999999999999893e+00,1.379000000000000004e+00,1.377999999999999892e+00,1.377999999999999892e+00,1.377000000000000002e+00,1.377000000000000002e+00,1.375999999999999890e+00,1.375999999999999890e+00,1.375000000000000000e+00,1.375000000000000000e+00,1.375000000000000000e+00,1.375000000000000000e+00,1.375000000000000000e+00,1.375999999999999890e+00,1.375999999999999890e+00,1.377000000000000002e+00,1.377000000000000002e+00,1.377999999999999892e+00,1.377999999999999892e+00,1.379000000000000004e+00,1.379000000000000004e+00,1.379999999999999893e+00,1.379999999999999893e+00,1.379999999999999893e+00,1.379000000000000004e+00,1.377999999999999892e+00,1.377000000000000002e+00,1.375000000000000000e+00,1.374000000000000110e+00,1.372000000000000108e+00,1.370000000000000107e+00,1.368999999999999995e+00,1.368999999999999995e+00,1.368999999999999995e+00,1.370000000000000107e+00,1.370999999999999996e+00,1.370999999999999996e+00,1.372000000000000108e+00,1.372000000000000108e+00,1.372000000000000108e+00,1.372999999999999998e+00,1.374000000000000110e+00,1.375999999999999890e+00,1.377999999999999892e+00,1.379000000000000004e+00,1.379999999999999893e+00,1.379999999999999893e+00,1.379999999999999893e+00,1.377999999999999892e+00,1.375999999999999890e+00,1.374000000000000110e+00,1.372000000000000108e+00,1.370000000000000107e+00,1.368000000000000105e+00,1.368000000000000105e+00,1.368000000000000105e+00,1.368000000000000105e+00,1.368999999999999995e+00,1.368999999999999995e+00,1.370000000000000107e+00,1.370000000000000107e+00,1.370999999999999996e+00,1.372000000000000108e+00,1.372999999999999998e+00,1.375000000000000000e+00,1.377000000000000002e+00,1.379000000000000004e+00,1.381000000000000005e+00,1.381999999999999895e+00,1.381999999999999895e+00,1.381000000000000005e+00
1.389000000000000012e+00,1.389000000000000012e+00,1.387999999999999901e+00,1.387999999999999901e+00,1.387999999999999901e+00,1.387999999999999901e+00,1.387999999999999901e+00,1.387000000000000011e+00,1.387000000000000011e+00,1.387000000000000011e+00,1.387000000000000011e+00,1.387000000000000011e+00,1.387000000000000011e+00,1.387000000000000011e+00,1.385999999999999899e+00,1.385999999999999899e+00,1.385999999999999899e+00,1.385999999999999899e+00,1.385999999999999899e+00,1.385000000000000009e+00,1.385000000000000009e+00,1.385000000000000009e+00,1.385000000000000009e+00,1.383999999999999897e+00,1.383999999999999897e+00,1.383999999999999897e+00,1.383000000000000007e+00,1.383000000000000007e+00,1.381999999999999895e+00,1.381999999999999895e+00,1.381999999999999895e+00,1.381999999999999895e+00,1.381999999999999895e+00,1.381999999999999895e+00,1.381000000000000005e+00,1.381000000000000005e+00,1.381999999999999895e+00,1.381999999999999895e+00,1.381999999999999895e+00,1.381999999999999895e+00,1.381999999999999895e+00,1.381999999999999895e+00,1.381999999999999895e+00,1.381999999999999895e+00,1.381000000000000005e+00,1.381000000000000005e+00,1.381000000000000005e+00,1.379999999999999893e+00,1.379999999999999893e+00,1.379000000000000004e+00,1.377999999999999892e+00,1.377999999999999892e+00,1.377000000000000002e+00,1.377000000000000002e+00,1.375999999999999890e+00,1.375999999999999890e+00,1.375000000000000000e+00,1.375000000000000000e+00,1.375000000000000000e+00,1.375000000000000000e+00,1.375000000000000000e+00,1.375999999999999890e+00,1.375999999999999890e+00,1.377000000000000002e+00,1.377000000000000002e+00,1.377999999999999892e+00,1.377999999999999892e+00,1.379000000000000004e+00,1.379000000000000004e+00,1.379000000000000004e+00,1.379999999999999893e+00,1.379999999999999893e+00,1.379000000000000004e+00,1.377999999999999892e+00,1.377000000000000002e+00,1.375000000000000000e+00,1.374000000000000110e+00,1.372000000000000108e+00,1.370000000000000107e+00,1.368999999999999995e+00,1.368999999999999995e+00,1.368999999999999995e+00,1.370000000000000107e+00,1.370000000000000107e+00,1.370999999999999996e+00,1.370999999999999996e+00,1.372000000000000108e+00,1.372000000000000108e+00,1.372999999999999998e+00,1.374000000000000110e+00,1.375999999999999890e+00,1.377999999999999892e+00,1.379000000000000004e+00,1.379999999999999893e+00,1.379999999999999893e+00,1.379999999999999893e+00,1.377999999999999892e+00,1.375999999999999890e+00,1.374000000000000110e+00,1.370999999999999996e+00,1.368999999999999995e+00,1.368000000000000105e+00,1.368000000000000105e+00,1.368000000000000105e+00,1.368000000000000105e+00,1.368999999999999995e+00,1.368999999999999995e+00,1.370000000000000107e+00,1.370000000000000107e+00,1.370999999999999996e+00,1.372000000000000108e+00,1.372999999999999998e+00,1.375000000000000000e+00,1.377000000000000002e+00,1.379000000000000004e+00,1.381000000000000005e+00,1.381999999999999895e+00,1.381999999999999895e+00,1.379999999999999893e+00
1.389000000000000012e+00,1.389000000000000012e+00,1.387999999999999901e+00,1.387999999999999901e+00,1.387999999999999901e+00,1.387999999999999901e+00,1.387999999999999901e+00,1.387000000000000011e+00,1.387000000000000011e+00,1.387000000000000011e+00,1.387000000000000011e+00,1.387000000000000011e+00,1.387000000000000011e+00,1.387000000000000011e+00,1.385999999999999899e+00,1.385999999999999899e+00,1.385999999999999899e+00,1.385999999999999899e+00,1.385999999999999899e+00,1.385000000000000009e+00,1.385000000000000009e+00,1.385000000000000009e+00,1.385000000000000009e+00,1.383999999999999897e+00,1.383999999999999897e+00,1.383000000000000007e+00,1.383000000000000007e+00,1.383000000000000007e+00,1.381999999999999895e+00,1.381999999999999895e+00,1.381999999999999895e+00,1.381999999999999895e+00,1.381999999999999895e+00,1.381000000000000005e+00,1.381000000000000005e+00,1.381000000000000005e+00,1.381000000000000005e+00,1.381000000000000005e+00,1.381999999999999895e+00,1.381999999999999895e+00,1.381999999999999895e+00,1.381999999999999895e+00,1.381999999999999895e+00,1.381000000000000005e+00,1.381000000000000005e+00,1.381000000000000005e+00,1.381000000000000005e+00,1.379999999999999893e+00,1.379999999999999893e+00,1.379000000000000004e+00,1.377999999999999892e+00,1.377999999999999892e+00,1.377000000000000002e+00,1.375999999999999890e+00,1.375999999999999890e+00,1.375000000000000000e+00,1.375000000000000000e+00,1.375000000000000000e+00,1.375000000000000000e+00,1.375000000000000000e+00,1.375000000000000000e+00,1.375000000000000000e+00,1.375999999999999890e+00,1.375999999999999890e+00,1.377000000000000002e+00,1.377000000000000002e+00,1.377999999999999892e+00,1.379000000000000004e+00,1.379000000000000004e+00,1.379000000000000004e+00,1.379999999999999893e+00,1.379000000000000004e+00,1.379000000000000004e+00,1.377999999999999892e+00,1.377000000000000002e+00,1.375000000000000000e+00,1.374000000000000110e+00,1.372000000000000108e+00,1.370000000000000107e+00,1.368999999999999995e+00,1.368999999999999995e+00,1.368999999999999995e+00,1.370000000000000107e+00,1.370000000000000107e+00,1.370999999999999996e+00,1.370999999999999996e+00,1.372000000000000108e+00,1.372000000000000108e+00,1.372999999999999998e+00,1.374000000000000110e+00,1.375999999999999890e+00,1.377999999999999892e+00,1.379000000000000004e+00,1.379999999999999893e+00,1.379999999999999893e+00,1.379999999999999893e+00,1.377999999999999892e+00,1.375999999999999890e+00,1.372999999999999998e+00,1.370999999999999996e+00,1.368999999999999995e+00,1.368000000000000105e+00,1.366999999999999993e+00,1.368000000000000105e+00,1.368000000000000105e+00,1.368000000000000105e+00,1.368999999999999995e+00,1.368999999999999995e+00,1.370000000000000107e+00,1.370000000000000107e+00,1.370999999999999996e+00,1.372999999999999998e+00,1.375000000000000000e+00,1.377000000000000002e+00,1.379000000000000004e+00,1.381000000000000005e+00,1.381999999999999895e+00,1.381999999999999895e+00,1.379999999999999893e+00
1.389000000000000012e+00,1.389000000000000012e+00,1.387999999999999901e+00,1.387999999999999901e+00,1.387999999999999901e+00,1.387999999999999901e+00,1.387999999999999901e+00,1.387000000000000011e+00,1.387000000000000011e+00,1.387000000000000011e+00,1.387000000000000011e+00,1.387000000000000011e+00,1.387000000000000011e+00,1.385999999999999899e+00,1.385999999999999899e+00,1.385999999999999899e+00,1.385999999999999899e+00,1.385999999999999899e+00,1.385999999999999899e+00,1.385000000000000009e+00,1.385000000000000009e+00,1.385000000000000009e+00,1.383999999999999897e+00,1.383999999999999897e+00,1.383999999999999897e+00,1.383000000000000007e+00,1.383000000000000007e+00,1.383000000000000007e+00,1.381999999999999895e+00,1.381999999999999895e+00,1.381999999999999895e+00,1.381999999999999895e+00,1.381000000000000005e+00,1.381000000000000005e+00,1.381000000000000005e+00,1.381000000000000005e+00,1.381000000000000005e+00,1.381000000000000005e+00,1.381000000000000005e+00,1.381000000000000005e+00,1.381000000000000005e+00,1.381000000000000005e+00,1.381000000000000005e+00,1.381000000000000005e+00,1.381000000000000005e+00,1.381000000000000005e+00,1.381000000000000005e+00,1.379999999999999893e+00,1.379999999999999893e+00,1.379000000000000004e+00,1.377999999999999892e+00,1.377999999999999892e+00,1.377000000000000002e+00,1.375999999999999890e+00,1.375999999999999890e+00,1.375000000000000000e+00,1.375000000000000000e+00,1.375000000000000000e+00,1.375000000000000000e+00,1.375000000000000000e+00,1.375000000000000000e+00,1.375000000000000000e+00,1.375999999999999890e+00,1.375999999999999890e+00,1.377000000000000002e+00,1.377000000000000002e+00,1.377999999999999892e+00,1.377999999999999892e+00,1.379000000000000004e+00,1.379000000000000004e+00,1.379000000000000004e+00,1.379000000000000004e+00,1.379000000000000004e+00,1.377999999999999892e+00,1.377000000000000002e+00,1.375000000000000000e+00,1.374000000000000110e+00,1.372000000000000108e+00,1.370000000000000107e+00,1.368999999999999995e+00,1.368999999999999995e+00,1.368999999999999995e+00,1.368999999999999995e+00,1.370000000000000107e+00,1.370999999999999996e+00,1.370999999999999996e+00,1.370999999999999996e+00,1.372000000000000108e+00,1.372999999999999998e+00,1.374000000000000110e+00,1.375999999999999890e+00,1.377000000000000002e+00,1.379000000000000004e+00,1.379999999999999893e+00,1.379999999999999893e+00,1.379999999999999893e+00,1.377999999999999892e+00,1.375999999999999890e+00,1.372999999999999998e+00,1.370999999999999996e+00,1.368999999999999995e+00,1.368000000000000105e+00,1.366999999999999993e+00,1.366999999999999993e+00,1.368000000000000105e+00,1.368000000000000105e+00,1.368999999999999995e+00,1.368999999999999995e+00,1.370000000000000107e+00,1.370000000000000107e+00,1.370999999999999996e+00,1.372999999999999998e+00,1.375000000000000000e+00,1.377000000000000002e+00,1.379000000000000004e+00,1.381000000000000005e+00,1.381999999999999895e+00,1.381000000000000005e+00,1.379999999999999893e+00
1.389000000000000012e+00,1.389000000000000012e+00,1.387999999999999901e+00,1.387999999999999901e+00,1.387999999999999901e+00,1.387999999999999901e+00,1.387000000000000011e+00,1.387000000000000011e+00,1.387000000000000011e+00,1.387000000000000011e+00,1.387000000000000011e+00,1.387000000000000011e+00,1.387000000000000011e+00,1.385999999999999899e+00,1.385999999999999899e+00,1.385999999999999899e+00,1.385999999999999899e+00,1.385999999999999899e+00,1.385999999999999899e+00,1.385000000000000009e+00,1.385000000000000009e+00,1.385000000000000009e+00,1.383999999999999897e+00,1.383999999999999897e+00,1.383999999999999897e+00,1.383000000000000007e+00,1.383000000000000007e+00,1.383000000000000007e+00,1.381999999999999895e+00,1.381999999999999895e+00,1.381999999999999895e+00,1.381000000000000005e+00,1.381000000000000005e+00,1.381000000000000005e+00,1.381000000000000005e+00,1.381000000000000005e+00,1.381000000000000005e+00,1.381000000000000005e+00,1.381000000000000005e+00,1.381000000000000005e+00,1.381000000000000005e+00,1.381000000000000005e+00,1.381000000000000005e+00,1.381000000000000005e+00,1.381000000000000005e+00,1.381000000000000005e+00,1.379999999999999893e+00,1.379999999999999893e+00,1.379000000000000004e+00,1.379000000000000004e+00,1.377999999999999892e+00,1.377999999999999892e+00,1.377000000000000002e+00,1.375999999999999890e+00,1.375999999999999890e+00,1.375000000000000000e+00,1.375000000000000000e+00,1.375000000000000000e+00,1.375000000000000000e+00,1.375000000000000000e+00,1.375000000000000000e+00,1.375000000000000000e+00,1.375000000000000000e+00,1.375999999999999890e+00,1.375999999999999890e+00,1.377000000000000002e+00,1.377999999999999892e+00,1.377999999999999892e+00,1.379000000000000004e+00,1.379000000000000004e+00,1.379000000000000004e+00,1.379000000000000004e+00,1.379000000000000004e+00,1.377999999999999892e+00,1.377000000000000002e+00,1.375000000000000000e+00,1.374000000000000110e+00,1.372000000000000108e+00,1.370000000000000107e+00,1.368999999999999995e+00,1.368000000000000105e+00,1.368000000000000105e+00,1.368999999999999995e+00,1.370000000000000107e+00,1.370000000000000107e+00,1.370999999999999996e+00,1.370999999999999996e+00,1.372000000000000108e+00,1.372000000000000108e+00,1.374000000000000110e+00,1.375000000000000000e+00,1.377000000000000002e+00,1.379000000000000004e+00,1.379999999999999893e+00,1.379999999999999893e+00,1.379999999999999893e+00,1.377999999999999892e+00,1.375999999999999890e+00,1.372999999999999998e+00,1.370999999999999996e+00,1.368999999999999995e+00,1.366999999999999993e+00,1.366999999999999993e+00,1.366999999999999993e+00,1.368000000000000105e+00,1.368000000000000105e+00,1.368999999999999995e+00,1.368999999999999995e+00,1.368999999999999995e+00,1.370000000000000107e+00,1.370999999999999996e+00,1.372999999999999998e+00,1.375000000000000000e+00,1.377000000000000002e+00,1.379000000000000004e+00,1.381000000000000005e+00,1.381999999999999895e+00,1.381000000000000005e+00,1.379999999999999893e+00
1.389000000000000012e+00,1.389000000000000012e+00,1.387999999999999901e+00,1.387999999999999901e+00,1.387999999999999901e+00,1.387999999999999901e+00,1.387000000000000011e+00,1.387000000000000011e+00,1.387000000000000011e+00,1.387000000000000011e+00,1.387000000000000011e+00,1.387000000000000011e+00,1.385999999999999899e+00,1.385999999999999899e+00,1.385999999999999899e+00,1.385999999999999899e+00,1.385999999999999899e+00,1.385999999999999899e+00,1.385000000000000009e+00,1.385000000000000009e+00,1.385000000000000009e+00,1.385000000000000009e+00,1.383999999999999897e+00,1.383999999999999897e+00,1.383999999999999897e+00,1.383000000000000007e+00,1.383000000000000007e+00,1.383000000000000007e+00,1.381999999999999895e+00,1.381999999999999895e+00,1.381999999999999895e+00,1.381000000000000005e+00,1.381000000000000005e+00,1.381000000000000005e+00,1.381000000000000005e+00,1.381000000000000005e+00,1.381000000000000005e+00,1.381000000000000005e+00,1.381000000000000005e+00,1.381000000000000005e+00,1.381000000000000005e+00,1.381000000000000005e+00,1.381000000000000005e+00,1.381000000000000005e+00,1.381000000000000005e+00,1.381000000000000005e+00,1.379999999999999893e+00,1.379999999999999893e+00,1.379000000000000004e+00,1.379000000000000004e+00,1.377999999999999892e+00,1.377999999999999892e+00,1.377000000000000002e+00,1.375999999999999890e+00,1.375999999999999890e+00,1.375000000000000000e+00,1.375000000000000000e+00,1.374000000000000110e+00,1.374000000000000110e+00,1.374000000000000110e+00,1.375000000000000000e+00,1.375000000000000000e+00,1.375000000000000000e+00,1.375999999999999890e+00,1.375999999999999890e+00,1.377000000000000002e+00,1.377000000000000002e+00,1.377999999999999892e+00,1.379000000000000004e+00,1.379000000000000004e+00,1.379000000000000004e+00,1.379000000000000004e+00,1.379000000000000004e+00,1.377999999999999892e+00,1.377000000000000002e+00,1.375000000000000000e+00,1.372999999999999998e+00,1.372000000000000108e+00,1.370000000000000107e+00,1.368999999999999995e+00,1.368000000000000105e+00,1.368000000000000105e+00,1.368999999999999995e+00,1.370000000000000107e+00,1.370000000000000107e+00,1.370999999999999996e+00,1.370999999999999996e+00,1.370999999999999996e+00,1.372000000000000108e+00,1.374000000000000110e+00,1.375000000000000000e+00,1.377000000000000002e+00,1.379000000000000004e+00,1.379999999999999893e+00,1.379999999999999893e+00,1.379999999999999893e+00,1.377999999999999892e+00,1.375999999999999890e+00,1.372999999999999998e+00,1.370000000000000107e+00,1.368000000000000105e+00,1.366999999999999993e+00,1.366999999999999993e+00,1.366999999999999993e+00,1.366999999999999993e+00,1.368000000000000105e+00,1.368000000000000105e+00,1.368999999999999995e+00,1.368999999999999995e+00,1.370000000000000107e+00,1.370999999999999996e+00,1.372000000000000108e+00,1.375000000000000000e+00,1.377000000000000002e+00,1.379000000000000004e+00,1.381000000000000005e+00,1.381999999999999895e+00,1.381000000000000005e+00,1.379999999999999893e+00
1.389000000000000012e+00,1.389000000000000012e+00,1.387999999999999901e+00,1.387999999999999901e+00,1.387999999999999901e+00,1.387999999999999901e+00,1.387000000000000011e+00,1.387000000000000011e+00,1.387000000000000011e+00,1.387000000000000011e+00,1.387000000000000011e+00,1.387000000000000011e+00,1.385999999999999899e+00,1.385999999999999899e+00,1.385999999999999899e+00,1.385999999999999899e+00,1.385999999999999899e+00,1.385999999999999899e+00,1.385000000000000009e+00,1.385000000000000009e+00,1.385000000000000009e+00,1.385000000000000009e+00,1.383999999999999897e+00,1.383999999999999897e+00,1.383999999999999897e+00,1.383000000000000007e+00,1.383000000000000007e+00,1.383000000000000007e+00,1.381999999999999895e+00,1.381999999999999895e+00,1.381999999999999895e+00,1.381000000000000005e+00,1.381000000000000005e+00,1.381000000000000005e+00,1.381000000000000005e+00,1.381000000000000005e+00,1.381000000000000005e+00,1.381000000000000005e+00,1.381000000000000005e+00,1.381000000000000005e+00,1.381000000000000005e+00,1.381000000000000005e+00,1.381000000000000005e+00,1.381000000000000005e+00,1.381000000000000005e+00,1.381000000000000005e+00,1.379999999999999893e+00,1.379999999999999893e+00,1.379000000000000004e+00,1.379000000000000004e+00,1.377999999999999892e+00,1.377000000000000002e+00,1.377000000000000002e+00,1.375999999999999890e+00,1.375999999999999890e+00,1.375000000000000000e+00,1.375000000000000000e+00,1.374000000000000110e+00,1.374000000000000110e+00,1.374000000000000110e+00,1.374000000000000110e+00,1.375000000000000000e+00,1.375000000000000000e+00,1.375999999999999890e+00,1.375999999999999890e+00,1.377000000000000002e+00,1.377000000000000002e+00,1.377999999999999892e+00,1.377999999999999892e+00,1.379000000000000004e+00,1.379000000000000004e+00,1.379000000000000004e+00,1.379000000000000004e+00,1.377999999999999892e+00,1.377000000000000002e+00,1.375000000000000000e+00,1.372999999999999998e+00,1.372000000000000108e+00,1.370000000000000107e+00,1.368999999999999995e+00,1.368000000000000105e+00,1.368000000000000105e+00,1.368999999999999995e+00,1.368999999999999995e+00,1.370000000000000107e+00,1.370999999999999996e+00,1.370999999999999996e+00,1.370999999999999996e+00,1.372000000000000108e+00,1.372999999999999998e+00,1.375000000000000000e+00,1.377000000000000002e+00,1.379000000000000004e+00,1.379999999999999893e+00,1.379999999999999893e+00,1.379999999999999893e+00,1.377999999999999892e+00,1.375999999999999890e+00,1.372999999999999998e+00,1.370000000000000107e+00,1.368000000000000105e+00,1.366999999999999993e+00,1.366999999999999993e+00,1.366999999999999993e+00,1.366999999999999993e+00,1.368000000000000105e+00,1.368000000000000105e+00,1.368999999999999995e+00,1.368999999999999995e+00,1.368999999999999995e+00,1.370000000000000107e+00,1.372000000000000108e+00,1.374000000000000110e+00,1.377000000000000002e+00,1.379000000000000004e+00,1.381000000000000005e+00,1.381999999999999895e+00,1.381000000000000005e+00,1.379999999999999893e+00
1.389000000000000012e+00,1.389000000000000012e+00,1.387999999999999901e+00,1.387999999999999901e+00,1.387999999999999901e+00,1.387999999999999901e+00,1.387000000000000011e+00,1.387000000000000011e+00,1.387000000000000011e+00,1.387000000000000011e+00,1.387000000000000011e+00,1.387000000000000011e+00,1.385999999999999899e+00,1.385999999999999899e+00,1.385999999999999899e+00,1.385999999999999899e+00,1.385999999999999899e+00,1.385999999999999899e+00,1.385000000000000009e+00,1.385000000000000009e+00,1.385000000000000009e+00,1.385000000000000009e+00,1.383999999999999897e+00,1.383999999999999897e+00,1.383999999999999897e+00,1.383000000000000007e+00,1.383000000000000007e+00,1.381999999999999895e+00,1.381999999999999895e+00,1.381999999999999895e+00,1.381000000000000005e+00,1.381000000000000005e+00,1.381000000000000005e+00,1.381000000000000005e+00,1.381000000000000005e+00,1.381000000000000005e+00,1.381000000000000005e+00,1.381000000000000005e+00,1.381000000000000005e+00,1.381000000000000005e+00,1.381000000000000005e+00,1.381000000000000005e+00,1.381000000000000005e+00,1.381000000000000005e+00,1.381000000000000005e+00,1.379999999999999893e+00,1.379999999999999893e+00,1.379999999999999893e+00,1.379000000000000004e+00,1.379000000000000004e+00,1.377999999999999892e+00,1.377000000000000002e+00,1.377000000000000002e+00,1.375999999999999890e+00,1.375000000000000000e+00,1.375000000000000000e+00,1.374000000000000110e+00,1.374000000000000110e+00,1.374000000000000110e+00,1.374000000000000110e+00,1.374000000000000110e+00,1.374000000000000110e+00,1.375000000000000000e+00,1.375000000000000000e+00,1.375999999999999890e+00,1.375999999999999890e+00,1.377000000000000002e+00,1.377999999999999892e+00,1.377999999999999892e+00,1.379000000000000004e+00,1.379000000000000004e+00,1.379000000000000004e+00,1.379000000000000004e+00,1.377999999999999892e+00,1.377000000000000002e+00,1.375000000000000000e+00,1.372999999999999998e+00,1.370999999999999996e+00,1.370000000000000107e+00,1.368000000000000105e+00,1.368000000000000105e+00,1.368000000000000105e+00,1.368000000000000105e+00,1.368999999999999995e+00,1.370000000000000107e+00,1.370000000000000107e+00,1.370999999999999996e+00,1.370999999999999996e+00,1.372000000000000108e+00,1.372999999999999998e+00,1.375000000000000000e+00,1.377000000000000002e+00,1.379000000000000004e+00,1.379999999999999893e+00,1.379999999999999893e+00,1.379999999999999893e+00,1.377999999999999892e+00,1.375000000000000000e+00,1.372999999999999998e+00,1.370000000000000107e+00,1.368000000000000105e+00,1.366999999999999993e+00,1.366000000000000103e+00,1.366999999999999993e+00,1.366999999999999993e+00,1.368000000000000105e+00,1.368000000000000105e+00,1.368000000000000105e+00,1.368999999999999995e+00,1.368999999999999995e+00,1.370000000000000107e+00,1.372000000000000108e+00,1.374000000000000110e+00,1.377000000000000002e+00,1.379000000000000004e+00,1.381000000000000005e+00,1.381999999999999895e+00,1.381000000000000005e+00,1.379999999999999893e+00
1.389000000000000012e+00,1.389000000000000012e+00,1.387999999999999901e+00,1.387999999999999901e+00,1.387999999999999901e+00,1.387999999999999901e+00,1.387000000000000011e+00,1.387000000000000011e+00,1.387000000000000011e+00,1.387000000000000011e+00,1.387000000000000011e+00,1.385999999999999899e+00,1.385999999999999899e+00,1.385999999999999899e+00,1.385999999999999899e+00,1.385999999999999899e+00,1.385999999999999899e+00,1.385999999999999899e+00,1.385000000000000009e+00,1.385000000000000009e+00,1.385000000000000009e+00,1.385000000000000009e+00,1.383999999999999897e+00,1.383999999999999897e+00,1.383999999999999897e+00,1.383000000000000007e+00,1.383000000000000007e+00,1.381999999999999895e+00,1.381999999999999895e+00,1.381999999999999895e+00,1.381000000000000005e+00,1.381000000000000005e+00,1.381000000000000005e+00,1.381000000000000005e+00,1.381000000000000005e+00,1.379999999999999893e+00,1.379999999999999893e+00,1.379999999999999893e+00,1.381000000000000005e+00,1.381000000000000005e+00,1.381000000000000005e+00,1.381000000000000005e+00,1.381000000000000005e+00,1.381000000000000005e+00,1.379999999999999893e+00,1.379999999999999893e+00,1.379999999999999893e+00,1.379999999999999893e+00,1.379000000000000004e+00,1.379000000000000004e+00,1.377999999999999892e+00,1.377000000000000002e+00,1.377000000000000002e+00,1.375999999999999890e+00,1.375000000000000000e+00,1.375000000000000000e+00,1.374000000000000110e+00,1.374000000000000110e+00,1.374000000000000110e+00,1.374000000000000110e+00,1.374000000000000110e+00,1.374000000000000110e+00,1.375000000000000000e+00,1.375000000000000000e+00,1.375999999999999890e+00,1.375999999999999890e+00,1.377000000000000002e+00,1.377000000000000002e+00,1.377999999999999892e+00,1.377999999999999892e+00,1.379000000000000004e+00,1.379000000000000004e+00,1.379000000000000004e+00,1.377999999999999892e+00,1.377000000000000002e+00,1.375000000000000000e+00,1.372999999999999998e+00,1.370999999999999996e+00,1.370000000000000107e+00,1.368000000000000105e+00,1.368000000000000105e+00,1.368000000000000105e+00,1.368000000000000105e+00,1.368999999999999995e+00,1.370000000000000107e+00,1.370000000000000107e+00,1.370999999999999996e+00,1.370999999999999996e+00,1.372000000000000108e+00,1.372999999999999998e+00,1.375000000000000000e+00,1.377000000000000002e+00,1.379000000000000004e+00,1.379999999999999893e+00,1.379999999999999893e+00,1.379999999999999893e+00,1.377999999999999892e+00,1.375000000000000000e+00,1.372999999999999998e+00,1.370000000000000107e+00,1.368000000000000105e+00,1.366000000000000103e+00,1.366000000000000103e+00,1.366000000000000103e+00,1.366999999999999993e+00,1.368000000000000105e+00,1.368000000000000105e+00,1.368000000000000105e+00,1.368000000000000105e+00,1.368999999999999995e+00,1.370000000000000107e+00,1.372000000000000108e+00,1.374000000000000110e+00,1.377000000000000002e+00,1.379000000000000004e+00,1.381000000000000005e+00,1.381999999999999895e+00,1.381000000000000005e+00,1.379999999999999893e+00
1.389000000000000012e+00,1.389000000000000012e+00,1.387999999999999901e+00,1.387999999999999901e+00,1.387999999999999901e+00,1.387999999999999901e+00,1.387000000000000011e+00,1.387000000000000011e+00,1.387000000000000011e+00,1.387000000000000011e+00,1.387000000000000011e+00,1.385999999999999899e+00,1.385999999999999899e+00,1.385999999999999899e+00,1.385999999999999899e+00,1.385999999999999899e+00,1.385999999999999899e+00,1.385000000000000009e+00,1.385000000000000009e+00,1.385000000000000009e+00,1.385000000000000009e+00,1.385000000000000009e+00,1.383999999999999897e+00,1.383999999999999897e+00,1.383999999999999897e+00,1.383000000000000007e+00,1.383000000000000007e+00,1.381999999999999895e+00,1.381999999999999895e+00,1.381999999999999895e+00,1.381000000000000005e+00,1.381000000000000005e+00,1.381000000000000005e+00,1.381000000000000005e+00,1.379999999999999893e+00,1.379999999999999893e+00,1.379999999999999893e+00,1.379999999999999893e+00,1.379999999999999893e+00,1.379999999999999893e+00,1.379999999999999893e+00,1.379999999999999893e+00,1.379999999999999893e+00,1.379999999999999893e+00,1.379999999999999893e+00,1.379999999999999893e+00,1.379999999999999893e+00,1.379999999999999893e+00,1.379000000000000004e+00,1.379000000000000004e+00,1.377999999999999892e+00,1.377000000000000002e+00,1.377000000000000002e+00,1.375999999999999890e+00,1.375000000000000000e+00,1.375000000000000000e+00,1.374000000000000110e+00,1.374000000000000110e+00,1.374000000000000110e+00,1.374000000000000110e+00,1.374000000000000110e+00,1.374000000000000110e+00,1.374000000000000110e+00,1.375000000000000000e+00,1.375000000000000000e+00,1.375999999999999890e+00,1.377000000000000002e+00,1.377000000000000002e+00,1.377999999999999892e+00,1.377999999999999892e+00,1.379000000000000004e+00,1.379000000000000004e+00,1.377999999999999892e+00,1.377999999999999892e+00,1.377000000000000002e+00,1.375000000000000000e+00,1.372999999999999998e+00,1.370999999999999996e+00,1.370000000000000107e+00,1.368000000000000105e+00,1.366999999999999993e+00,1.366999999999999993e+00,1.368000000000000105e+00,1.368999999999999995e+00,1.368999999999999995e+00,1.370000000000000107e+00,1.370000000000000107e+00,1.370999999999999996e+00,1.370999999999999996e+00,1.372999999999999998e+00,1.374000000000000110e+00,1.375999999999999890e+00,1.377999999999999892e+00,1.379999999999999893e+00,1.379999999999999893e+00,1.379999999999999893e+00,1.377999999999999892e+00,1.375000000000000000e+00,1.372000000000000108e+00,1.370000000000000107e+00,1.368000000000000105e+00,1.366000000000000103e+00,1.366000000000000103e+00,1.366000000000000103e+00,1.366999999999999993e+00,1.368000000000000105e+00,1.368000000000000105e+00,1.368000000000000105e+00,1.368000000000000105e+00,1.368999999999999995e+00,1.370000000000000107e+00,1.372000000000000108e+00,1.374000000000000110e+00,1.377000000000000002e+00,1.379000000000000004e+00,1.381000000000000005e+00,1.381999999999999895e+00,1.381000000000000005e+00,1.379000000000000004e+00
1.389000000000000012e+00,1.389000000000000012e+00,1.387999999999999901e+00,1.387999999999999901e+00,1.387999999999999901e+00,1.387999999999999901e+00,1.387000000000000011e+00,1.387000000000000011e+00,1.387000000000000011e+00,1.387000000000000011e+00,1.387000000000000011e+00,1.385999999999999899e+00,1.385999999999999899e+00,1.385999999999999899e+00,1.385999999999999899e+00,1.385999999999999899e+00,1.385999999999999899e+00,1.385000000000000009e+00,1.385000000000000009e+00,1.385000000000000009e+00,1.385000000000000009e+00,1.383999999999999897e+00,1.383999999999999897e+00,1.383999999999999897e+00,1.383000000000000007e+00,1.383000000000000007e+00,1.383000000000000007e+00,1.381999999999999895e+00,1.381999999999999895e+00,1.381999999999999895e+00,1.381000000000000005e+00,1.381000000000000005e+00,1.381000000000000005e+00,1.379999999999999893e+00,1.379999999999999893e+00,1.379999999999999893e+00,1.379999999999999893e+00,1.379999999999999893e+00,1.379999999999999893e+00,1.379999999999999893e+00,1.379999999999999893e+00,1.379999999999999893e+00,1.379999999999999893e+00,1.379999999999999893e+00,1.379999999999999893e+00,1.379999999999999893e+00,1.379999999999999893e+00,1.379000000000000004e+00,1.379000000000000004e+00,1.377999999999999892e+00,1.377999999999999892e+00,1.377000000000000002e+00,1.377000000000000002e+00,1.375999999999999890e+00,1.375000000000000000e+00,1.375000000000000000e+00,1.374000000000000110e+00,1.374000000000000110e+00,1.374000000000000110e+00,1.374000000000000110e+00,1.374000000000000110e+00,1.374000000000000110e+00,1.374000000000000110e+00,1.375000000000000000e+00,1.375000000000000000e+00,1.375999999999999890e+00,1.375999999999999890e+00,1.377000000000000002e+00,1.377999999999999892e+00,1.377999999999999892e+00,1.379000000000000004e+00,1.379000000000000004e+00,1.377999999999999892e+00,1.377999999999999892e+00,1.377000000000000002e+00,1.375000000000000000e+00,1.372999999999999998e+00,1.370999999999999996e+00,1.368999999999999995e+00,1.368000000000000105e+00,1.366999999999999993e+00,1.366999999999999993e+00,1.368000000000000105e+00,1.368999999999999995e+00,1.368999999999999995e+00,1.370000000000000107e+00,1.370000000000000107e+00,1.370999999999999996e+00,1.370999999999999996e+00,1.372000000000000108e+00,1.374000000000000110e+00,1.375999999999999890e+00,1.377999999999999892e+00,1.379999999999999893e+00,1.379999999999999893e+00,1.379000000000000004e+00,1.377999999999999892e+00,1.375000000000000000e+00,1.372000000000000108e+00,1.368999999999999995e+00,1.366999999999999993e+00,1.366000000000000103e+00,1.366000000000000103e+00,1.366000000000000103e+00,1.366999999999999993e+00,1.366999999999999993e+00,1.368000000000000105e+00,1.368000000000000105e+00,1.368000000000000105e+00,1.368000000000000105e+00,1.368999999999999995e+00,1.370999999999999996e+00,1.374000000000000110e+00,1.377000000000000002e+00,1.379000000000000004e+00,1.381000000000000005e+00,1.381999999999999895e+00,1.381000000000000005e+00,1.379000000000000004e+00
1.389000000000000012e+00,1.389000000000000012e+00,1.387999999999999901e+00,1.387999999999999901e+00,1.387999999999999901e+00,1.387999999999999901e+00,1.387000000000000011e+00,1.387000000000000011e+00,1.387000000000000011e+00,1.387000000000000011e+00,1.385999999999999899e+00,1.385999999999999899e+00,1.385999999999999899e+00,1.385999999999999899e+00,1.385999999999999899e+00,1.385999999999999899e+00,1.385000000000000009e+00,1.385000000000000009e+00,1.385000000000000009e+00,1.385000000000000009e+00,1.385000000000000009e+00,1.383999999999999897e+00,1.383999999999999897e+00,1.383999999999999897e+00,1.383000000000000007e+00,1.383000000000000007e+00,1.383000000000000007e+00,1.381999999999999895e+00,1.381999999999999895e+00,1.381999999999999895e+00,1.381000000000000005e+00,1.381000000000000005e+00,1.381000000000000005e+00,1.379999999999999893e+00,1.379999999999999893e+00,1.379999999999999893e+00,1.379999999999999893e+00,1.379999999999999893e+00,1.379999999999999893e+00,1.379999999999999893e+00,1.379999999999999893e+00,1.379999999999999893e+00,1.379999999999999893e+00,1.379999999999999893e+00,1.379999999999999893e+00,1.379999999999999893e+00,1.379999999999999893e+00,1.379000000000000004e+00,1.379000000000000004e+00,1.377999999999999892e+00,1.377999999999999892e+00,1.377000000000000002e+00,1.375999999999999890e+00,1.375999999999999890e+00,1.375000000000000000e+00,1.375000000000000000e+00,1.374000000000000110e+00,1.374000000000000110e+00,1.372999999999999998e+00,1.372999999999999998e+00,1.372999999999999998e+00,1.374000000000000110e+00,1.374000000000000110e+00,1.374000000000000110e+00,1.375000000000000000e+00,1.375999999999999890e+00,1.375999999999999890e+00,1.377000000000000002e+00,1.377999999999999892e+00,1.377999999999999892e+00,1.377999999999999892e+00,1.379000000000000004e+00,1.377999999999999892e+00,1.377999999999999892e+00,1.377000000000000002e+00,1.375000000000000000e+00,1.372999999999999998e+00,1.370999999999999996e+00,1.368999999999999995e+00,1.368000000000000105e+00,1.366999999999999993e+00,1.366999999999999993e+00,1.366999999999999993e+00,1.368000000000000105e+00,1.368999999999999995e+00,1.370000000000000107e+00,1.370000000000000107e+00,1.370000000000000107e+00,1.370999999999999996e+00,1.372000000000000108e+00,1.374000000000000110e+00,1.375999999999999890e+00,1.377999999999999892e+00,1.379999999999999893e+00,1.379999999999999893e+00,1.379000000000000004e+00,1.377999999999999892e+00,1.375000000000000000e+00,1.372000000000000108e+00,1.368999999999999995e+00,1.366999999999999993e+00,1.366000000000000103e+00,1.364999999999999991e+00,1.366000000000000103e+00,1.366999999999999993e+00,1.366999999999999993e+00,1.368000000000000105e+00,1.368000000000000105e+00,1.368000000000000105e+00,1.368000000000000105e+00,1.368999999999999995e+00,1.370999999999999996e+00,1.374000000000000110e+00,1.377000000000000002e+00,1.379000000000000004e+00,1.381000000000000005e+00,1.381000000000000005e+00,1.381000000000000005e+00,1.379000000000000004e+00
1.389000000000000012e+00,1.389000000000000012e+00,1.387999999999999901e+00,1.387999999999999901e+00,1.387999999999999901e+00,1.387999999999999901e+00,1.387000000000000011e+00,1.387000000000000011e+00,1.387000000000000011e+00,1.387000000000000011e+00,1.385999999999999899e+00,1.385999999999999899e+00,1.385999999999999899e+00,1.385999999999999899e+00,1.385999999999999899e+00,1.385999999999999899e+00,1.385000000000000009e+00,1.385000000000000009e+00,1.385000000000000009e+00,1.385000000000000009e+00,1.385000000000000009e+00,1.383999999999999897e+00,1.383999999999999897e+00,1.383999999999999897e+00,1.383000000000000007e+00,1.383000000000000007e+00,1.383000000000000007e+00,1.381999999999999895e+00,1.381999999999999895e+00,1.381000000000000005e+00,1.381000000000000005e+00,1.381000000000000005e+00,1.379999999999999893e+00,1.379999999999999893e+00,1.379999999999999893e+00,1.379999999999999893e+00,1.379999999999999893e+00,1.379999999999999893e+00,1.379999999999999893e+00,1.379999999999999893e+00,1.379999999999999893e+00,1.379999999999999893e+00,1.379999999999999893e+00,1.379999999999999893e+00,1.379999999999999893e+00,1.379999999999999893e+00,1.379999999999999893e+00,1.379000000000000004e+00,1.379000000000000004e+00,1.377999999999999892e+00,1.377999999999999892e+00,1.377000000000000002e+00,1.375999999999999890e+00,1.375999999999999890e+00,1.375000000000000000e+00,1.374000000000000110e+00,1.374000000000000110e+00,1.374000000000000110e+00,1.372999999999999998e+00,1.372999999999999998e+00,1.372999999999999998e+00,1.372999999999999998e+00,1.374000000000000110e+00,1.374000000000000110e+00,1.375000000000000000e+00,1.375000000000000000e+00,1.375999999999999890e+00,1.377000000000000002e+00,1.377000000000000002e+00,1.377999999999999892e+00,1.377999999999999892e+00,1.377999999999999892e+00,1.377999999999999892e+00,1.377999999999999892e+00,1.377000000000000002e+00,1.375000000000000000e+00,1.372999999999999998e+00,1.370999999999999996e+00,1.368999999999999995e+00,1.368000000000000105e+00,1.366999999999999993e+00,1.366999999999999993e+00,1.366999999999999993e+00,1.368000000000000105e+00,1.368999999999999995e+00,1.368999999999999995e+00,1.370000000000000107e+00,1.370000000000000107e+00,1.370999999999999996e+00,1.372000000000000108e+00,1.374000000000000110e+00,1.375999999999999890e+00,1.377999999999999892e+00,1.379000000000000004e+00,1.379999999999999893e+00,1.379000000000000004e+00,1.377999999999999892e+00,1.375000000000000000e+00,1.372000000000000108e+00,1.368999999999999995e+00,1.366999999999999993e+00,1.364999999999999991e+00,1.364999999999999991e+00,1.366000000000000103e+00,1.366000000000000103e+00,1.366999999999999993e+00,1.366999999999999993e+00,1.366999999999999993e+00,1.366999999999999993e+00,1.368000000000000105e+00,1.368999999999999995e+00,1.370999999999999996e+00,1.374000000000000110e+00,1.377000000000000002e+00,1.379000000000000004e+00,1.381000000000000005e+00,1.381000000000000005e+00,1.381000000000000005e+00,1.379000000000000004e+00
1.389000000000000012e+00,1.389000000000000012e+00,1.387999999999999901e+00,1.387999999999999901e+00,1.387999999999999901e+00,1.387999999999999901e+00,1.387000000000000011e+00,1.387000000000000011e+00,1.387000000000000011e+00,1.387000000000000011e+00,1.385999999999999899e+00,1.385999999999999899e+00,1.385999999999999899e+00,1.385999999999999899e+00,1.385999999999999899e+00,1.385999999999999899e+00,1.385000000000000009e+00,1.385000000000000009e+00,1.385000000000000009e+00,1.385000000000000009e+00,1.385000000000000009e+00,1.383999999999999897e+00,1.383999999999999897e+00,1.383999999999999897e+00,1.383000000000000007e+00,1.383000000000000007e+00,1.383000000000000007e+00,1.381999999999999895e+00,1.381999999999999895e+00,1.381000000000000005e+00,1.381000000000000005e+00,1.381000000000000005e+00,1.379999999999999893e+00,1.379999999999999893e+00,1.379999999999999893e+00,1.379999999999999893e+00,1.379999999999999893e+00,1.379999999999999893e+00,1.379999999999999893e+00,1.379999999999999893e+00,1.379999999999999893e+00,1.379999999999999893e+00,1.379999999999999893e+00,1.379999999999999893e+00,1.379999999999999893e+00,1.379999999999999893e+00,1.379000000000000004e+00,1.379000000000000004e+00,1.379000000000000004e+00,1.377999999999999892e+00,1.377999999999999892e+00,1.377000000000000002e+00,1.375999999999999890e+00,1.375999999999999890e+00,1.375000000000000000e+00,1.374000000000000110e+00,1.374000000000000110e+00,1.372999999999999998e+00,1.372999999999999998e+00,1.372999999999999998e+00,1.372999999999999998e+00,1.372999999999999998e+00,1.374000000000000110e+00,1.374000000000000110e+00,1.375000000000000000e+00,1.375000000000000000e+00,1.375999999999999890e+00,1.377000000000000002e+00,1.377000000000000002e+00,1.377999999999999892e+00,1.377999999999999892e+00,1.377999999999999892e+00,1.377999999999999892e+00,1.377999999999999892e+00,1.377000000000000002e+00,1.375000000000000000e+00,1.372999999999999998e+00,1.370999999999999996e+00,1.368999999999999995e+00,1.368000000000000105e+00,1.366999999999999993e+00,1.366999999999999993e+00,1.366999999999999993e+00,1.368000000000000105e+00,1.368999999999999995e+00,1.368999999999999995e+00,1.370000000000000107e+00,1.370000000000000107e+00,1.370999999999999996e+00,1.372000000000000108e+00,1.374000000000000110e+00,1.375999999999999890e+00,1.377999999999999892e+00,1.379000000000000004e+00,1.379999999999999893e+00,1.379000000000000004e+00,1.377999999999999892e+00,1.375000000000000000e+00,1.372000000000000108e+00,1.368999999999999995e+00,1.366999999999999993e+00,1.364999999999999991e+00,1.364999999999999991e+00,1.366000000000000103e+00,1.366000000000000103e+00,1.366999999999999993e+00,1.366999999999999993e+00,1.366999999999999993e+00,1.366999999999999993e+00,1.366999999999999993e+00,1.368999999999999995e+00,1.370999999999999996e+00,1.374000000000000110e+00,1.377000000000000002e+00,1.379000000000000004e+00,1.381000000000000005e+00,1.381000000000000005e+00,1.381000000000000005e+00,1.379000000000000004e+00
1.389000000000000012e+00,1.389000000000000012e+00,1.387999999999999901e+00,1.387999999999999901e+00,1.387999999999999901e+00,1.387999999999999901e+00,1.387000000000000011e+00,1.387000000000000011e+00,1.387000000000000011e+00,1.387000000000000011e+00,1.385999999999999899e+00,1.385999999999999899e+00,1.385999999999999899e+00,1.385999999999999899e+00,1.385999999999999899e+00,1.385000000000000009e+00,1.385000000000000009e+00,1.385000000000000009e+00,1.385000000000000009e+00,1.385000000000000009e+00,1.383999999999999897e+00,1.383999999999999897e+00,1.383999999999999897e+00,1.383999999999999897e+00,1.383000000000000007e+00,1.383000000000000007e+00,1.383000000000000007e+00,1.381999999999999895e+00,1.381999999999999895e+00,1.381000000000000005e+00,1.381000000000000005e+00,1.381000000000000005e+00,1.379999999999999893e+00,1.379999999999999893e+00,1.379999999999999893e+00,1.379999999999999893e+00,1.379999999999999893e+00,1.379999999999999893e+00,1.379000000000000004e+00,1.379999999999999893e+00,1.379999999999999893e+00,1.379999999999999893e+00,1.379999999999999893e+00,1.379999999999999893e+00,1.379999999999999893e+00,1.379000000000000004e+00,1.379000000000000004e+00,1.379000000000000004e+00,1.379000000000000004e+00,1.377999999999999892e+00,1.377999999999999892e+00,1.377000000000000002e+00,1.375999999999999890e+00,1.375999999999999890e+00,1.375000000000000000e+00,1.374000000000000110e+00,1.374000000000000110e+00,1.372999999999999998e+00,1.372999999999999998e+00,1.372999999999999998e+00,1.372999999999999998e+00,1.372999999999999998e+00,1.372999999999999998e+00,1.374000000000000110e+00,1.374000000000000110e+00,1.375000000000000000e+00,1.375999999999999890e+00,1.375999999999999890e+00,1.377000000000000002e+00,1.377999999999999892e+00,1.377999999999999892e+00,1.377999999999999892e+00,1.377999999999999892e+00,1.377000000000000002e+00,1.375999999999999890e+00,1.375000000000000000e+00,1.372999999999999998e+00,1.370999999999999996e+00,1.368999999999999995e+00,1.368000000000000105e+00,1.366999999999999993e+00,1.366000000000000103e+00,1.366999999999999993e+00,1.368000000000000105e+00,1.368000000000000105e+00,1.368999999999999995e+00,1.368999999999999995e+00,1.370000000000000107e+00,1.370000000000000107e+00,1.372000000000000108e+00,1.372999999999999998e+00,1.375000000000000000e+00,1.377999999999999892e+00,1.379000000000000004e+00,1.379999999999999893e+00,1.379000000000000004e+00,1.377999999999999892e+00,1.375000000000000000e+00,1.372000000000000108e+00,1.368999999999999995e+00,1.366000000000000103e+00,1.364999999999999991e+00,1.364999999999999991e+00,1.364999999999999991e+00,1.366000000000000103e+00,1.366999999999999993e+00,1.366999999999999993e+00,1.366999999999999993e+00,1.366999999999999993e+00,1.366999999999999993e+00,1.368000000000000105e+00,1.370999999999999996e+00,1.372999999999999998e+00,1.375999999999999890e+00,1.379000000000000004e+00,1.381000000000000005e+00,1.381000000000000005e+00,1.379999999999999893e+00,1.379000000000000004e+00
1.389000000000000012e+00,1.389000000000000012e+00,1.387999999999999901e+00,1.387999999999999901e+00,1.387999999999999901e+00,1.387999999999999901e+00,1.387000000000000011e+00,1.387000000000000011e+00,1.387000000000000011e+00,1.387000000000000011e+00,1.385999999999999899e+00,1.385999999999999899e+00,1.385999999999999899e+00,1.385999999999999899e+00,1.385999999999999899e+00,1.385000000000000009e+00,1.385000000000000009e+00,1.385000000000000009e+00,1.385000000000000009e+00,1.385000000000000009e+00,1.383999999999999897e+00,1.383999999999999897e+00,1.383999999999999897e+00,1.383999999999999897e+00,1.383000000000000007e+00,1.383000000000000007e+00,1.383000000000000007e+00,1.381999999999999895e+00,1.381999999999999895e+00,1.381000000000000005e+00,1.381000000000000005e+00,1.381000000000000005e+00,1.379999999999999893e+00,1.379999999999999893e+00,1.379999999999999893e+00,1.379999999999999893e+00,1.379000000000000004e+00,1.379000000000000004e+00,1.379000000000000004e+00,1.379000000000000004e+00,1.379000000000000004e+00,1.379000000000000004e+00,1.379000000000000004e+00,1.379000000000000004e+00,1.379000000000000004e+00,1.379000000000000004e+00,1.379000000000000004e+00,1.379000000000000004e+00,1.379000000000000004e+00,1.377999999999999892e+00,1.377999999999999892e+00,1.377000000000000002e+00,1.375999999999999890e+00,1.375999999999999890e+00,1.375000000000000000e+00,1.374000000000000110e+00,1.374000000000000110e+00,1.372999999999999998e+00,1.372999999999999998e+00,1.372999999999999998e+00,1.372999999999999998e+00,1.372999999999999998e+00,1.372999999999999998e+00,1.374000000000000110e+00,1.374000000000000110e+00,1.375000000000000000e+00,1.375000000000000000e+00,1.375999999999999890e+00,1.377000000000000002e+00,1.377000000000000002e+00,1.377999999999999892e+00,1.377999999999999892e+00,1.377999999999999892e+00,1.377000000000000002e+00,1.375999999999999890e+00,1.375000000000000000e+00,1.372999999999999998e+00,1.370999999999999996e+00,1.368999999999999995e+00,1.366999999999999993e+00,1.366000000000000103e+00,1.366000000000000103e+00,1.366999999999999993e+00,1.366999999999999993e+00,1.368000000000000105e+00,1.368999999999999995e+00,1.368999999999999995e+00,1.370000000000000107e+00,1.370000000000000107e+00,1.370999999999999996e+00,1.372999999999999998e+00,1.375000000000000000e+00,1.377000000000000002e+00,1.379000000000000004e+00,1.379999999999999893e+00,1.379000000000000004e+00,1.377999999999999892e+00,1.375000000000000000e+00,1.372000000000000108e+00,1.368000000000000105e+00,1.366000000000000103e+00,1.364999999999999991e+00,1.364999999999999991e+00,1.364999999999999991e+00,1.366000000000000103e+00,1.366999999999999993e+00,1.366999999999999993e+00,1.366999999999999993e+00,1.366999999999999993e+00,1.366999999999999993e+00,1.368000000000000105e+00,1.370000000000000107e+00,1.372999999999999998e+00,1.375999999999999890e+00,1.379000000000000004e+00,1.381000000000000005e+00,1.381000000000000005e+00,1.379999999999999893e+00,1.377999999999999892e+00
1.389000000000000012e+00,1.389000000000000012e+00,1.387999999999999901e+00,1.387999999999999901e+00,1.387999999999999901e+00,1.387999999999999901e+00,1.387000000000000011e+00,1.387000000000000011e+00,1.387000000000000011e+00,1.387000000000000011e+00,1.385999999999999899e+00,1.385999999999999899e+00,1.385999999999999899e+00,1.385999999999999899e+00,1.385999999999999899e+00,1.385000000000000009e+00,1.385000000000000009e+00,1.385000000000000009e+00,1.385000000000000009e+00,1.385000000000000009e+00,1.383999999999999897e+00,1.383999999999999897e+00,1.383999999999999897e+00,1.383999999999999897e+00,1.383000000000000007e+00,1.383000000000000007e+00,1.383000000000000007e+00,1.381999999999999895e+00,1.381999999999999895e+00,1.381000000000000005e+00,1.381000000000000005e+00,1.381000000000000005e+00,1.379999999999999893e+00,1.379999999999999893e+00,1.379999999999999893e+00,1.379000000000000004e+00,1.379000000000000004e+00,1.379000000000000004e+00,1.379000000000000004e+00,1.379000000000000004e+00,1.379000000000000004e+00,1.379000000000000004e+00,1.379000000000000004e+00,1.379000000000000004e+00,1.379000000000000004e+00,1.379000000000000004e+00,1.379000000000000004e+00,1.379000000000000004e+00,1.379000000000000004e+00,1.377999999999999892e+00,1.377999999999999892e+00,1.377000000000000002e+00,1.375999999999999890e+00,1.375999999999999890e+00,1.375000000000000000e+00,1.374000000000000110e+00,1.374000000000000110e+00,1.372999999999999998e+00,1.372999999999999998e+00,1.372999999999999998e+00,1.372999999999999998e+00,1.372999999999999998e+00,1.372999999999999998e+00,1.372999999999999998e+00,1.374000000000000110e+00,1.374000000000000110e+00,1.375000000000000000e+00,1.375999999999999890e+00,1.377000000000000002e+00,1.377000000000000002e+00,1.377999999999999892e+00,1.377999999999999892e+00,1.377999999999999892e+00,1.377000000000000002e+00,1.375999999999999890e+00,1.375000000000000000e+00,1.372999999999999998e+00,1.370999999999999996e+00,1.368999999999999995e+00,1.366999999999999993e+00,1.366000000000000103e+00,1.366000000000000103e+00,1.366000000000000103e+00,1.366999999999999993e+00,1.368000000000000105e+00,1.368999999999999995e+00,1.368999999999999995e+00,1.368999999999999995e+00,1.370000000000000107e+00,1.370999999999999996e+00,1.372999999999999998e+00,1.375000000000000000e+00,1.377000000000000002e+00,1.379000000000000004e+00,1.379999999999999893e+00,1.379000000000000004e+00,1.377999999999999892e+00,1.375000000000000000e+00,1.370999999999999996e+00,1.368000000000000105e+00,1.366000000000000103e+00,1.364000000000000101e+00,1.364000000000000101e+00,1.364999999999999991e+00,1.366000000000000103e+00,1.366999999999999993e+00,1.366999999999999993e+00,1.366999999999999993e+00,1.366000000000000103e+00,1.366999999999999993e+00,1.368000000000000105e+00,1.370000000000000107e+00,1.372999999999999998e+00,1.375999999999999890e+00,1.379000000000000004e+00,1.381000000000000005e+00,1.381000000000000005e+00,1.379999999999999893e+00,1.377999999999999892e+00
1.389000000000000012e+00,1.389000000000000012e+00,1.389000000000000012e+00,1.387999999999999901e+00,1.387999999999999901e+00,1.387999999999999901e+00,1.387000000000000011e+00,1.387000000000000011e+00,1.387000000000000011e+00,1.387000000000000011e+00,1.385999999999999899e+00,1.385999999999999899e+00,1.385999999999999899e+00,1.385999999999999899e+00,1.385999999999999899e+00,1.385000000000000009e+00,1.385000000000000009e+00,1.385000000000000009e+00,1.385000000000000009e+00,1.385000000000000009e+00,1.383999999999999897e+00,1.383999999999999897e+00,1.383999999999999897e+00,1.383999999999999897e+00,1.383000000000000007e+00,1.383000000000000007e+00,1.383000000000000007e+00,1.381999999999999895e+00,1.381999999999999895e+00,1.381000000000000005e+00,1.381000000000000005e+00,1.381000000000000005e+00,1.379999999999999893e+00,1.379999999999999893e+00,1.379999999999999893e+00,1.379000000000000004e+00,1.379000000000000004e+00,1.379000000000000004e+00,1.379000000000000004e+00,1.379000000000000004e+00,1.379000000000000004e+00,1.379000000000000004e+00,1.379000000000000004e+00,1.379000000000000004e+00,1.379000000000000004e+00,1.379000000000000004e+00,1.379000000000000004e+00,1.379000000000000004e+00,1.377999999999999892e+00,1.377999999999999892e+00,1.377000000000000002e+00,1.377000000000000002e+00,1.375999999999999890e+00,1.375999999999999890e+00,1.375000000000000000e+00,1.374000000000000110e+00,1.372999999999999998e+00,1.372999999999999998e+00,1.372999999999999998e+00,1.372000000000000108e+00,1.372000000000000108e+00,1.372000000000000108e+00,1.372999999999999998e+00,1.372999999999999998e+00,1.374000000000000110e+00,1.374000000000000110e+00,1.375000000000000000e+00,1.375999999999999890e+00,1.375999999999999890e+00,1.377000000000000002e+00,1.377000000000000002e+00,1.377999999999999892e+00,1.377999999999999892e+00,1.377000000000000002e+00,1.375999999999999890e+00,1.375000000000000000e+00,1.372999999999999998e+00,1.370999999999999996e+00,1.368999999999999995e+00,1.366999999999999993e+00,1.366000000000000103e+00,1.366000000000000103e+00,1.366000000000000103e+00,1.366999999999999993e+00,1.368000000000000105e+00,1.368000000000000105e+00,1.368999999999999995e+00,1.368999999999999995e+00,1.370000000000000107e+00,1.370999999999999996e+00,1.372999999999999998e+00,1.375000000000000000e+00,1.377000000000000002e+00,1.379000000000000004e+00,1.379999999999999893e+00,1.379000000000000004e+00,1.377000000000000002e+00,1.375000000000000000e+00,1.370999999999999996e+00,1.368000000000000105e+00,1.364999999999999991e+00,1.364000000000000101e+00,1.364000000000000101e+00,1.364999999999999991e+00,1.366000000000000103e+00,1.366000000000000103e+00,1.366999999999999993e+00,1.366000000000000103e+00,1.366000000000000103e+00,1.366000000000000103e+00,1.368000000000000105e+00,1.370000000000000107e+00,1.372999999999999998e+00,1.375999999999999890e+00,1.379000000000000004e+00,1.381000000000000005e+00,1.381000000000000005e+00,1.379999999999999893e+00,1.377999999999999892e+00
1.389000000000000012e+00,1.389000000000000012e+00,1.389000000000000012e+00,1.387999999999999901e+00,1.387999999999999901e+00,1.387999999999999901e+00,1.387000000000000011e+00,1.387000000000000011e+00,1.387000000000000011e+00,1.387000000000000011e+00,1.385999999999999899e+00,1.385999999999999899e+00,1.385999999999999899e+00,1.385999999999999899e+00,1.385000000000000009e+00,1.385000000000000009e+00,1.385000000000000009e+00,1.385000000000000009e+00,1.385000000000000009e+00,1.385000000000000009e+00,1.383999999999999897e+00,1.383999999999999897e+00,1.383999999999999897e+00,1.383999999999999897e+00,1.383000000000000007e+00,1.383000000000000007e+00,1.383000000000000007e+00,1.381999999999999895e+00,1.381999999999999895e+00,1.381000000000000005e+00,1.381000000000000005e+00,1.381000000000000005e+00,1.379999999999999893e+00,1.379999999999999893e+00,1.379999999999999893e+00,1.379000000000000004e+00,1.379000000000000004e+00,1.379000000000000004e+00,1.379000000000000004e+00,1.379000000000000004e+00,1.379000000000000004e+00,1.379000000000000004e+00,1.379000000000000004e+00,1.379000000000000004e+00,1.379000000000000004e+00,1.379000000000000004e+00,1.379000000000000004e+00,1.379000000000000004e+00,1.377999999999999892e+00,1.377999999999999892e+00,1.377000000000000002e+00,1.377000000000000002e+00,1.375999999999999890e+00,1.375000000000000000e+00,1.375000000000000000e+00,1.374000000000000110e+00,1.372999999999999998e+00,1.372999999999999998e+00,1.372000000000000108e+00,1.372000000000000108e+00,1.372000000000000108e+00,1.372000000000000108e+00,1.372000000000000108e+00,1.372999999999999998e+00,1.372999999999999998e+00,1.374000000000000110e+00,1.375000000000000000e+00,1.375000000000000000e+00,1.375999999999999890e+00,1.377000000000000002e+00,1.377000000000000002e+00,1.377999999999999892e+00,1.377000000000000002e+00,1.377000000000000002e+00,1.375999999999999890e+00,1.375000000000000000e+00,1.372999999999999998e+00,1.370999999999999996e+00,1.368999999999999995e+00,1.366999999999999993e+00,1.366000000000000103e+00,1.366000000000000103e+00,1.366000000000000103e+00,1.366999999999999993e+00,1.366999999999999993e+00,1.368000000000000105e+00,1.368999999999999995e+00,1.368999999999999995e+00,1.368999999999999995e+00,1.370999999999999996e+00,1.372000000000000108e+00,1.375000000000000000e+00,1.377000000000000002e+00,1.379000000000000004e+00,1.379000000000000004e+00,1.379000000000000004e+00,1.377000000000000002e+00,1.375000000000000000e+00,1.370999999999999996e+00,1.368000000000000105e+00,1.364999999999999991e+00,1.364000000000000101e+00,1.364000000000000101e+00,1.364999999999999991e+00,1.366000000000000103e+00,1.366000000000000103e+00,1.366000000000000103e+00,1.366000000000000103e+00,1.366000000000000103e+00,1.366000000000000103e+00,1.366999999999999993e+00,1.370000000000000107e+00,1.372999999999999998e+00,1.375999999999999890e+00,1.379000000000000004e+00,1.381000000000000005e+00,1.381000000000000005e+00,1.379999999999999893e+00,1.377999999999999892e+00
1.389000000000000012e+00,1.389000000000000012e+00,1.389000000000000012e+00,1.387999999999999901e+00,1.387999999999999901e+00,1.387999999999999901e+00,1.387000000000000011e+00,1.387000000000000011e+00,1.387000000000000011e+00,1.387000000000000011e+00,1.385999999999999899e+00,1.385999999999999899e+00,1.385999999999999899e+00,1.385999999999999899e+00,1.385000000000000009e+00,1.385000000000000009e+00,1.385000000000000009e+00,1.385000000000000009e+00,1.385000000000000009e+00,1.385000000000000009e+00,1.383999999999999897e+00,1.383999999999999897e+00,1.383999999999999897e+00,1.383999999999999897e+00,1.383000000000000007e+00,1.383000000000000007e+00,1.383000000000000007e+00,1.381999999999999895e+00,1.381999999999999895e+00,1.381000000000000005e+00,1.381000000000000005e+00,1.379999999999999893e+00,1.379999999999999893e+00,1.379999999999999893e+00,1.379000000000000004e+00,1.379000000000000004e+00,1.379000000000000004e+00,1.379000000000000004e+00,1.379000000000000004e+00,1.379000000000000004e+00,1.379000000000000004e+00,1.379000000000000004e+00,1.379000000000000004e+00,1.379000000000000004e+00,1.379000000000000004e+00,1.379000000000000004e+00,1.379000000000000004e+00,1.379000000000000004e+00,1.377999999999999892e+00,1.377999999999999892e+00,1.377000000000000002e+00,1.377000000000000002e+00,1.375999999999999890e+00,1.375000000000000000e+00,1.375000000000000000e+00,1.374000000000000110e+00,1.372999999999999998e+00,1.372999999999999998e+00,1.372000000000000108e+00,1.372000000000000108e+00,1.372000000000000108e+00,1.372000000000000108e+00,1.372000000000000108e+00,1.372999999999999998e+00,1.372999999999999998e+00,1.374000000000000110e+00,1.374000000000000110e+00,1.375000000000000000e+00,1.375999999999999890e+00,1.377000000000000002e+00,1.377000000000000002e+00,1.377000000000000002e+00,1.377000000000000002e+00,1.377000000000000002e+00,1.375999999999999890e+00,1.375000000000000000e+00,1.372999999999999998e+00,1.370999999999999996e+00,1.368999999999999995e+00,1.366999999999999993e+00,1.366000000000000103e+00,1.364999999999999991e+00,1.366000000000000103e+00,1.366000000000000103e+00,1.366999999999999993e+00,1.368000000000000105e+00,1.368000000000000105e+00,1.368999999999999995e+00,1.368999999999999995e+00,1.370000000000000107e+00,1.372000000000000108e+00,1.374000000000000110e+00,1.377000000000000002e+00,1.377999999999999892e+00,1.379000000000000004e+00,1.379000000000000004e+00,1.377000000000000002e+00,1.374000000000000110e+00,1.370999999999999996e+00,1.368000000000000105e+00,1.364999999999999991e+00,1.364000000000000101e+00,1.364000000000000101e+00,1.364000000000000101e+00,1.364999999999999991e+00,1.366000000000000103e+00,1.366000000000000103e+00,1.366000000000000103e+00,1.366000000000000103e+00,1.366000000000000103e+00,1.366999999999999993e+00,1.368999999999999995e+00,1.372999999999999998e+00,1.375999999999999890e+00,1.379000000000000004e+00,1.381000000000000005e+00,1.381000000000000005e+00,1.379999999999999893e+00,1.377000000000000002e+00
1.389000000000000012e+00,1.389000000000000012e+00,1.389000000000000012e+00,1.387999999999999901e+00,1.387999999999999901e+00,1.387999999999999901e+00,1.387000000000000011e+00,1.387000000000000011e+00,1.387000000000000011e+00,1.387000000000000011e+00,1.385999999999999899e+00,1.385999999999999899e+00,1.385999999999999899e+00,1.385999999999999899e+00,1.385000000000000009e+00,1.385000000000000009e+00,1.385000000000000009e+00,1.385000000000000009e+00,1.385000000000000009e+00,1.383999999999999897e+00,1.383999999999999897e+00,1.383999999999999897e+00,1.383999999999999897e+00,1.383000000000000007e+00,1.383000000000000007e+00,1.383000000000000007e+00,1.381999999999999895e+00,1.381999999999999895e+00,1.381999999999999895e+00,1.381000000000000005e+00,1.381000000000000005e+00,1.379999999999999893e+00,1.379999999999999893e+00,1.379999999999999893e+00,1.379000000000000004e+00,1.379000000000000004e+00,1.379000000000000004e+00,1.379000000000000004e+00,1.379000000000000004e+00,1.379000000000000004e+00,1.379000000000000004e+00,1.379000000000000004e+00,1.379000000000000004e+00,1.379000000000000004e+00,1.379000000000000004e+00,1.379000000000000004e+00,1.379000000000000004e+00,1.377999999999999892e+00,1.377999999999999892e+00,1.377999999999999892e+00,1.377000000000000002e+00,1.377000000000000002e+00,1.375999999999999890e+00,1.375000000000000000e+00,1.375000000000000000e+00,1.374000000000000110e+00,1.372999999999999998e+00,1.372999999999999998e+00,1.372000000000000108e+00,1.372000000000000108e+00,1.372000000000000108e+00,1.372000000000000108e+00,1.372000000000000108e+00,1.372000000000000108e+00,1.372999999999999998e+00,1.374000000000000110e+00,1.374000000000000110e+00,1.375000000000000000e+00,1.375999999999999890e+00,1.375999999999999890e+00,1.377000000000000002e+00,1.377000000000000002e+00,1.377000000000000002e+00,1.377000000000000002e+00,1.375999999999999890e+00,1.375000000000000000e+00,1.372999999999999998e+00,1.370999999999999996e+00,1.368999999999999995e+00,1.366999999999999993e+00,1.366000000000000103e+00,1.364999999999999991e+00,1.364999999999999991e+00,1.366000000000000103e+00,1.366999999999999993e+00,1.368000000000000105e+00,1.368000000000000105e+00,1.368000000000000105e+00,1.368999999999999995e+00,1.370000000000000107e+00,1.372000000000000108e+00,1.374000000000000110e+00,1.375999999999999890e+00,1.377999999999999892e+00,1.379000000000000004e+00,1.379000000000000004e+00,1.377000000000000002e+00,1.374000000000000110e+00,1.370999999999999996e+00,1.366999999999999993e+00,1.364999999999999991e+00,1.362999999999999989e+00,1.362999999999999989e+00,1.364000000000000101e+00,1.364999999999999991e+00,1.366000000000000103e+00,1.366000000000000103e+00,1.366000000000000103e+00,1.364999999999999991e+00,1.364999999999999991e+00,1.366999999999999993e+00,1.368999999999999995e+00,1.372000000000000108e+00,1.375999999999999890e+00,1.379000000000000004e+00,1.379999999999999893e+00,1.381000000000000005e+00,1.379000000000000004e+00,1.377000000000000002e+00
1.389000000000000012e+00,1.389000000000000012e+00,1.389000000000000012e+00,1.387999999999999901e+00,1.387999999999999901e+00,1.387999999999999901e+00,1.387000000000000011e+00,1.387000000000000011e+00,1.387000000000000011e+00,1.387000000000000011e+00,1.385999999999999899e+00,1.385999999999999899e+00,1.385999999999999899e+00,1.385999999999999899e+00,1.385000000000000009e+00,1.385000000000000009e+00,1.385000000000000009e+00,1.385000000000000009e+00,1.385000000000000009e+00,1.383999999999999897e+00,1.383999999999999897e+00,1.383999999999999897e+00,1.383999999999999897e+00,1.383000000000000007e+00,1.383000000000000007e+00,1.383000000000000007e+00,1.381999999999999895e+00,1.381999999999999895e+00,1.381999999999999895e+00,1.381000000000000005e+00,1.381000000000000005e+00,1.379999999999999893e+00,1.379999999999999893e+00,1.379999999999999893e+00,1.379000000000000004e+00,1.379000000000000004e+00,1.379000000000000004e+00,1.379000000000000004e+00,1.379000000000000004e+00,1.379000000000000004e+00,1.377999999999999892e+00,1.379000000000000004e+00,1.379000000000000004e+00,1.379000000000000004e+00,1.379000000000000004e+00,1.379000000000000004e+00,1.377999999999999892e+00,1.377999999999999892e+00,1.377999999999999892e+00,1.377999999999999892e+00,1.377000000000000002e+00,1.377000000000000002e+00,1.375999999999999890e+00,1.375000000000000000e+00,1.375000000000000000e+00,1.374000000000000110e+00,1.372999999999999998e+00,1.372999999999999998e+00,1.372000000000000108e+00,1.372000000000000108e+00,1.372000000000000108e+00,1.372000000000000108e+00,1.372000000000000108e+00,1.372000000000000108e+00,1.372999999999999998e+00,1.372999999999999998e+00,1.374000000000000110e+00,1.375000000000000000e+00,1.375000000000000000e+00,1.375999999999999890e+00,1.377000000000000002e+00,1.377000000000000002e+00,1.377000000000000002e+00,1.377000000000000002e+00,1.375999999999999890e+00,1.375000000000000000e+00,1.372999999999999998e+00,1.370999999999999996e+00,1.368999999999999995e+00,1.366999999999999993e+00,1.364999999999999991e+00,1.364999999999999991e+00,1.364999999999999991e+00,1.366000000000000103e+00,1.366999999999999993e+00,1.366999999999999993e+00,1.368000000000000105e+00,1.368000000000000105e+00,1.368999999999999995e+00,1.370000000000000107e+00,1.372000000000000108e+00,1.374000000000000110e+00,1.375999999999999890e+00,1.377999999999999892e+00,1.379000000000000004e+00,1.379000000000000004e+00,1.377000000000000002e+00,1.374000000000000110e+00,1.370999999999999996e+00,1.366999999999999993e+00,1.364000000000000101e+00,1.362999999999999989e+00,1.362999999999999989e+00,1.364000000000000101e+00,1.364999999999999991e+00,1.366000000000000103e+00,1.366000000000000103e+00,1.366000000000000103e+00,1.364999999999999991e+00,1.364999999999999991e+00,1.366000000000000103e+00,1.368999999999999995e+00,1.372000000000000108e+00,1.375999999999999890e+00,1.379000000000000004e+00,1.379999999999999893e+00,1.381000000000000005e+00,1.379000000000000004e+00,1.377000000000000002e+00
1.389000000000000012e+00,1.389000000000000012e+00,1.389000000000000012e+00,1.387999999999999901e+00,1.387999999999999901e+00,1.387999999999999901e+00,1.387000000000000011e+00,1.387000000000000011e+00,1.387000000000000011e+00,1.387000000000000011e+00,1.385999999999999899e+00,1.385999999999999899e+00,1.385999999999999899e+00,1.385999999999999899e+00,1.385000000000000009e+00,1.385000000000000009e+00,1.385000000000000009e+00,1.385000000000000009e+00,1.385000000000000009e+00,1.383999999999999897e+00,1.383999999999999897e+00,1.383999999999999897e+00,1.383999999999999897e+00,1.383000000000000007e+00,1.383000000000000007e+00,1.383000000000000007e+00,1.381999999999999895e+00,1.381999999999999895e+00,1.381999999999999895e+00,1.381000000000000005e+00,1.381000000000000005e+00,1.379999999999999893e+00,1.379999999999999893e+00,1.379999999999999893e+00,1.379000000000000004e+00,1.379000000000000004e+00,1.379000000000000004e+00,1.379000000000000004e+00,1.377999999999999892e+00,1.377999999999999892e+00,1.377999999999999892e+00,1.377999999999999892e+00,1.377999999999999892e+00,1.377999999999999892e+00,1.377999999999999892e+00,1.377999999999999892e+00,1.377999999999999892e+00,1.377999999999999892e+00,1.377999999999999892e+00,1.377999999999999892e+00,1.377000000000000002e+00,1.377000000000000002e+00,1.375999999999999890e+00,1.375000000000000000e+00,1.375000000000000000e+00,1.374000000000000110e+00,1.372999999999999998e+00,1.372999999999999998e+00,1.372000000000000108e+00,1.372000000000000108e+00,1.370999999999999996e+00,1.370999999999999996e+00,1.372000000000000108e+00,1.372000000000000108e+00,1.372000000000000108e+00,1.372999999999999998e+00,1.374000000000000110e+00,1.374000000000000110e+00,1.375000000000000000e+00,1.375999999999999890e+00,1.375999999999999890e+00,1.377000000000000002e+00,1.377000000000000002e+00,1.377000000000000002e+00,1.375999999999999890e+00,1.375000000000000000e+00,1.372999999999999998e+00,1.370999999999999996e+00,1.368999999999999995e+00,1.366999999999999993e+00,1.364999999999999991e+00,1.364999999999999991e+00,1.364999999999999991e+00,1.366000000000000103e+00,1.366000000000000103e+00,1.366999999999999993e+00,1.368000000000000105e+00,1.368000000000000105e+00,1.368000000000000105e+00,1.370000000000000107e+00,1.370999999999999996e+00,1.374000000000000110e+00,1.375999999999999890e+00,1.377999999999999892e+00,1.379000000000000004e+00,1.379000000000000004e+00,1.377000000000000002e+00,1.374000000000000110e+00,1.370000000000000107e+00,1.366999999999999993e+00,1.364000000000000101e+00,1.362999999999999989e+00,1.362999999999999989e+00,1.364000000000000101e+00,1.364999999999999991e+00,1.366000000000000103e+00,1.366000000000000103e+00,1.364999999999999991e+00,1.364999999999999991e+00,1.364999999999999991e+00,1.366000000000000103e+00,1.368999999999999995e+00,1.372000000000000108e+00,1.375999999999999890e+00,1.379000000000000004e+00,1.379999999999999893e+00,1.379999999999999893e+00,1.379000000000000004e+00,1.377000000000000002e+00
1.389000000000000012e+00,1.389000000000000012e+00,1.389000000000000012e+00,1.387999999999999901e+00,1.387999999999999901e+00,1.387999999999999901e+00,1.387999999999999901e+00,1.387000000000000011e+00,1.387000000000000011e+00,1.387000000000000011e+00,1.385999999999999899e+00,1.385999999999999899e+00,1.385999999999999899e+00,1.385999999999999899e+00,1.385000000000000009e+00,1.385000000000000009e+00,1.385000000000000009e+00,1.385000000000000009e+00,1.385000000000000009e+00,1.383999999999999897e+00,1.383999999999999897e+00,1.383999999999999897e+00,1.383999999999999897e+00,1.383000000000000007e+00,1.383000000000000007e+00,1.383000000000000007e+00,1.381999999999999895e+00,1.381999999999999895e+00,1.381999999999999895e+00,1.381000000000000005e+00,1.381000000000000005e+00,1.379999999999999893e+00,1.379999999999999893e+00,1.379999999999999893e+00,1.379000000000000004e+00,1.379000000000000004e+00,1.379000000000000004e+00,1.377999999999999892e+00,1.377999999999999892e+00,1.377999999999999892e+00,1.377999999999999892e+00,1.377999999999999892e+00,1.377999999999999892e+00,1.377999999999999892e+00,1.377999999999999892e+00,1.377999999999999892e+00,1.377999999999999892e+00,1.377999999999999892e+00,1.377999999999999892e+00,1.377999999999999892e+00,1.377000000000000002e+00,1.377000000000000002e+00,1.375999999999999890e+00,1.375000000000000000e+00,1.375000000000000000e+00,1.374000000000000110e+00,1.372999999999999998e+00,1.372000000000000108e+00,1.372000000000000108e+00,1.372000000000000108e+00,1.370999999999999996e+00,1.370999999999999996e+00,1.370999999999999996e+00,1.372000000000000108e+00,1.372000000000000108e+00,1.372999999999999998e+00,1.372999999999999998e+00,1.374000000000000110e+00,1.375000000000000000e+00,1.375999999999999890e+00,1.375999999999999890e+00,1.377000000000000002e+00,1.377000000000000002e+00,1.375999999999999890e+00,1.375999999999999890e+00,1.375000000000000000e+00,1.372999999999999998e+00,1.370999999999999996e+00,1.368000000000000105e+00,1.366000000000000103e+00,1.364999999999999991e+00,1.364000000000000101e+00,1.364999999999999991e+00,1.364999999999999991e+00,1.366000000000000103e+00,1.366999999999999993e+00,1.366999999999999993e+00,1.368000000000000105e+00,1.368000000000000105e+00,1.368999999999999995e+00,1.370999999999999996e+00,1.372999999999999998e+00,1.375999999999999890e+00,1.377999999999999892e+00,1.379000000000000004e+00,1.379000000000000004e+00,1.377000000000000002e+00,1.374000000000000110e+00,1.370000000000000107e+00,1.366999999999999993e+00,1.364000000000000101e+00,1.362999999999999989e+00,1.362999999999999989e+00,1.364000000000000101e+00,1.364999999999999991e+00,1.366000000000000103e+00,1.366000000000000103e+00,1.364999999999999991e+00,1.364999999999999991e+00,1.364999999999999991e+00,1.366000000000000103e+00,1.368000000000000105e+00,1.372000000000000108e+00,1.375999999999999890e+00,1.379000000000000004e+00,1.379999999999999893e+00,1.379999999999999893e+00,1.379000000000000004e+00,1.377000000000000002e+00
